# .PCD v0.7 - Point Cloud Data file format
VERSION 0.7
FIELDS x y z intensity
SIZE 4 4 4 4
TYPE F F F F
COUNT 1 1 1 1
WIDTH 1003
HEIGHT 1
VIEWPOINT 0 0 0 1 0 0 0
POINTS 1003
DATA ascii
-0.0087604485 -0.0076993103 0.24857774 0.0390625
-0.0074785999 -0.0075116912 0.24252032 0.040039062
-0.0064432533 -0.00755039 0.24376974 0.040039062
-0.0054504992 -0.0076644626 0.24745266 0.041015625
-0.0042748526 -0.007514094 0.24259791 0.042236328
-0.0032708063 -0.0076656505 0.247491 0.04296875
-0.0020732218 -0.0072883843 0.2353107 0.043945312
-0.00103127 -0.0072508329 0.23409832 0.045410156
0 -0.0072131376 0.23288129 0.046142578
0.0010688684 -0.007515186 0.24263315 0.046875
0.0021161903 -0.0074394392 0.24018762 0.047119141
0.0030130087 -0.007061461 0.22798431 0.049804688
0.0042748526 -0.007514094 0.24259791 0.0546875
0.0051551517 -0.0072491467 0.23404388 0.060791016
0.0062177391 -0.0072861263 0.23523778 0.070556641
0.0068773055 -0.0069077364 0.22302119 0.083251953
0.0077727502 -0.0068312506 0.22055182 0.08203125
0.0090327244 -0.0070565389 0.22782539 0.068603516
0.010088176 -0.00709297 0.22900161 0.061279297
0.011566856 -0.0073932963 0.23869786 0.057861328
0.012165028 -0.007127665 0.23012176 0.056152344
0.013663581 -0.0073898672 0.23858714 0.055908203
0.015086062 -0.0075764074 0.24460973 0.053222656
0.015837541 -0.0074235555 0.23967478 0.052978516
0.016631139 -0.0073083187 0.2359543 0.052001953
0.017300738 -0.0071553546 0.23101574 0.052734375
0.018890534 -0.0073788245 0.23823062 0.051025391
0.019831203 -0.0073385616 0.2369307 0.051757812
0.020653097 -0.0072605689 0.23441267 0.049804688
0.022238791 -0.0074457307 0.24039073 0.050292969
0.024111476 -0.0077057797 0.2487866 0.049560547
0.024950746 -0.0076273056 0.24625301 0.049316406
0.026921196 -0.007886759 0.25462964 0.049316406
0.027228901 -0.0076578273 0.24723844 0.048828125
0.029830448 -0.0080668107 0.26044276 0.047363281
0.029377967 -0.0076502115 0.24699254 0.046386719
0.030748567 -0.007721155 0.24928302 0.045898438
0.032292943 -0.0078293392 0.25277582 0.043457031
0.032269459 -0.0075628567 0.24417223 0.043457031
0.034315616 -0.0077829738 0.25127885 0.044677734
0.036933146 -0.0081148744 0.26199451 0.044677734
0.037362155 -0.0079603735 0.25700635 0.043457031
0.040637199 -0.0084035015 0.27131304 0.043945312
0.03883227 -0.0078008184 0.25185499 0.043212891
0.041251797 -0.0080566742 0.2601155 0.042724609
0.04315304 -0.0082002133 0.26474974 0.041748047
0.044891916 -0.008306155 0.26817015 0.041015625
0.044388212 -0.0080023678 0.25836214 0.040771484
0.047185283 -0.0082939621 0.26777649 0.038818359
0.048544846 -0.0083248178 0.26877269 0.038085938
0.049911983 -0.0083554722 0.2697624 0.037597656
0.052648231 -0.0086085647 0.27793366 0.037597656
0.052204654 -0.0083420342 0.26932853 0.037841797
0.053109687 -0.0082980618 0.26790887 0.036132812
0.055938989 -0.0085501205 0.27604675 0.035644531
0.058094464 -0.0086906515 0.28058392 0.034912109
0.057260215 -0.008387397 0.27079311 0.034912109
0.060458764 -0.0086751832 0.28008449 0.033935547
0.060586996 -0.008519711 0.27506495 0.031982422
0.063612051 -0.0087696984 0.28313598 0.031005859
0.065614566 -0.0088718133 0.2864328 0.030517578
0.063485064 -0.0084219202 0.27190772 0.030273438
0.063208453 -0.0082299439 0.26570961 0.025146484
-0.027181009 -0.0068253195 0.25708705 0.026855469
-0.027166545 -0.0071182833 0.26812199 0.029785156
-0.025055567 -0.0068635722 0.25852787 0.030517578
-0.023701901 -0.0068019363 0.25620627 0.031005859
-0.023331314 -0.0070303655 0.26481041 0.030761719
-0.021562804 -0.006839436 0.25761876 0.031494141
-0.020820767 -0.0069709648 0.262573 0.032470703
-0.019579628 -0.0069410345 0.26144564 0.032714844
-0.017919321 -0.0067494786 0.25423035 0.033447266
-0.017367216 -0.0069776243 0.26282385 0.034179688
-0.015538361 -0.0066887634 0.25194341 0.035400391
-0.014711125 -0.006819793 0.25687885 0.035888672
-0.013454038 -0.0067567844 0.25450554 0.036132812
-0.011804413 -0.0064672604 0.24360014 0.036376953
-0.011162803 -0.0067273178 0.25339565 0.037353516
-0.0097585134 -0.0065344623 0.24613142 0.037109375
-0.0088904053 -0.0066973083 0.25226527 0.038574219
-0.0075547225 -0.0065041292 0.24498886 0.039794922
-0.0062185293 -0.0062460448 0.23526768 0.040527344
-0.0055854567 -0.0067322059 0.25357977 0.040283203
-0.0043613333 -0.0065709469 0.24750566 0.042724609
-0.0032067646 -0.006441907 0.24264517 0.042724609
-0.0020090253 -0.0060537443 0.22802436 0.043212891
-0.0010206575 -0.0061510419 0.23168924 0.045410156
0 -0.0061187269 0.23047206 0.046630859
0.0010475169 -0.0063129114 0.23778634 0.046875
0.0020734859 -0.0062479819 0.23534065 0.047851562
0.0031261926 -0.0062800501 0.23654857 0.049804688
0.0042753955 -0.0064414698 0.24262869 0.054931641
0.0051289536 -0.0061819777 0.2328545 0.060791016
0.0061218683 -0.0061489558 0.23161067 0.070800781
0.0069533517 -0.0059863874 0.22548726 0.083740234
0.0078166854 -0.0058884546 0.22179846 0.082275391
0.0089372527 -0.0059845322 0.22541739 0.068603516
0.010304126 -0.0062098322 0.23390368 0.061035156
0.010978104 -0.006014552 0.22654814 0.057617188
0.012037823 -0.0060455441 0.22771548 0.056640625
0.013525869 -0.0062703313 0.23618247 0.055664062
0.014412393 -0.0062040705 0.23368666 0.053466797
0.01575914 -0.0063315481 0.23848832 0.053222656
0.017147675 -0.006458831 0.24328265 0.052246094
0.017667199 -0.0062630731 0.23590907 0.052246094
0.019471273 -0.0065191435 0.2455544 0.052246094
0.020037133 -0.0063555138 0.23939101 0.051757812
0.02076273 -0.0062563801 0.23565698 0.049072266
0.023027914 -0.006608516 0.24892078 0.049804688
0.024232145 -0.0066380091 0.25003168 0.050292969
0.024339257 -0.0063774665 0.24021789 0.048828125
0.026539946 -0.0066643446 0.25102365 0.048828125
0.027632801 -0.0066612167 0.25090584 0.048339844
0.028169025 -0.0065293075 0.24593724 0.047851562
0.02995776 -0.0066867368 0.25186709 0.047363281
0.030603133 -0.0065868311 0.24810398 0.045166016
0.032451514 -0.0067438143 0.25401703 0.044189453
0.033391882 -0.0067079267 0.25266525 0.044921875
0.0353099 -0.0068644136 0.25855958 0.044677734
0.035916425 -0.0067641274 0.25478214 0.044433594
0.037542243 -0.0068560652 0.25824514 0.043701172
0.038835932 -0.0068837246 0.25928697 0.044189453
0.039952032 -0.0068792244 0.25911745 0.042724609
0.041065916 -0.0068746037 0.25894341 0.04296875
0.042569865 -0.0069337664 0.26117188 0.041992188
0.04248146 -0.0067372788 0.25377083 0.041748047
0.043567762 -0.0067323903 0.25358671 0.040771484
0.047191102 -0.0071099875 0.26780954 0.0390625
0.047683842 -0.0070089996 0.26400566 0.038330078
0.048143256 -0.0069080396 0.26020283 0.038574219
0.052427735 -0.0073478674 0.27676967 0.037353516
0.053139251 -0.0072783241 0.27415019 0.037597656
0.053353302 -0.0071452502 0.26913777 0.036621094
0.055219259 -0.0072343815 0.27249503 0.035644531
0.055629149 -0.0071330159 0.26867694 0.034912109
0.058024026 -0.0072850958 0.27440527 0.033691406
0.061495323 -0.0075633582 0.28488651 0.033691406
0.060594343 -0.0073034945 0.27509832 0.031738281
0.061481278 -0.0072650961 0.27365196 0.031005859
0.063716441 -0.0073844278 0.27814677 0.030761719
0.067928895 -0.0077240905 0.29094073 0.029785156
0.065473787 -0.0073070545 0.2752324 0.025146484
-0.026286323 -0.0055005485 0.24862479 0.026855469
-0.027292375 -0.0059593776 0.26936388 0.030029297
-0.025411174 -0.0058008204 0.26219708 0.029785156
-0.022918029 -0.005480818 0.24773297 0.031005859
-0.022905659 -0.0057517532 0.25997925 0.030517578
-0.021768551 -0.0057539134 0.26007688 0.032470703
-0.019955367 -0.0055676852 0.25165936 0.032714844
-0.019672798 -0.0058117197 0.26268974 0.032958984
-0.017663997 -0.0055444236 0.25060797 0.033447266
-0.016082479 -0.0053845467 0.24338152 0.034179688
-0.015540026 -0.0055745668 0.25197044 0.035400391
-0.014503519 -0.0056029591 0.25325376 0.036132812
-0.013777384 -0.0057659768 0.26062217 0.035644531
-0.011746651 -0.0053630127 0.24240817 0.036621094
-0.010895638 -0.0054719239 0.24733098 0.037597656
-0.010194394 -0.0056886123 0.25712529 0.038085938
-0.0084618274 -0.0053120437 0.24010438 0.038330078
-0.0075555351 -0.0054206899 0.24501519 0.039550781
-0.0064447648 -0.005394401 0.24382693 0.040527344
-0.005290641 -0.0053140512 0.24019511 0.040283203
-0.0043188292 -0.0054224241 0.24509357 0.043212891
-0.0032232259 -0.0053958129 0.24389075 0.042236328
-0.0020951983 -0.005261173 0.23780502 0.04296875
-0.001063747 -0.0053422693 0.24147059 0.045166016
0 -0.0053153401 0.24025337 0.047119141
0.0010476296 -0.0052613262 0.23781194 0.046875
0.0020737092 -0.0052072122 0.23536599 0.047607422
0.003110413 -0.0052069593 0.23535457 0.050048828
0.0041254489 -0.0051796292 0.23411924 0.055175781
0.0048878002 -0.0049094278 0.22190614 0.060058594
0.0062191975 -0.0052055968 0.23529297 0.070800781
0.0071044583 -0.005097067 0.23038742 0.084228516
0.0079034325 -0.0049615023 0.22425991 0.082763672
0.0091314716 -0.005095487 0.23031601 0.068359375
0.009983195 -0.0050136838 0.22661853 0.061523438
0.011333453 -0.005174364 0.23388125 0.057861328
0.012747299 -0.005334876 0.2411364 0.057373047
0.013666778 -0.0052797114 0.23864296 0.055908203
0.014188721 -0.0050898222 0.23005997 0.055419922
0.015600005 -0.0052230102 0.23608007 0.052490234
0.016978016 -0.005329106 0.2408756 0.052490234
0.018215556 -0.0053812223 0.24323125 0.052001953
0.018702133 -0.0052180244 0.2358547 0.051513672
0.020140996 -0.0053237141 0.24063189 0.051269531
0.021300122 -0.005348593 0.24175641 0.049560547
0.022019282 -0.0052658841 0.23801795 0.049804688
0.023528866 -0.0053711305 0.2427751 0.049316406
0.025448294 -0.005556717 0.2511636 0.048583984
0.025516966 -0.0053395568 0.24134797 0.048339844
0.027635735 -0.0055516036 0.25093248 0.048339844
0.028310794 -0.0054684738 0.24717501 0.047363281
0.029672848 -0.0055192863 0.24947174 0.046386719
0.031502172 -0.0056502786 0.25539261 0.045898438
0.032454949 -0.0056204405 0.25404391 0.045654297
0.033395413 -0.0055905301 0.25269198 0.044677734
0.035643667 -0.005774416 0.26100361 0.044433594
0.036601171 -0.0057442384 0.25963956 0.044189453
0.037195295 -0.0056605879 0.25585857 0.043212891
0.038478713 -0.0056836731 0.25690201 0.043945312
0.039027013 -0.005599957 0.25311807 0.04296875
0.041070223 -0.0057294373 0.25897059 0.042480469
0.042966716 -0.0058320048 0.26360661 0.042236328
0.04329133 -0.0057214317 0.25860873 0.041503906
0.047082882 -0.0060629761 0.27404651 0.041015625
0.045502905 -0.0057130302 0.25822899 0.040283203
0.048122346 -0.0058945459 0.26643348 0.038818359
0.049923323 -0.0059695505 0.26982367 0.038818359
0.051979214 -0.0060708378 0.2744019 0.037841797
0.052448541 -0.005986433 0.27058679 0.037353516
0.053833134 -0.0060079261 0.27155828 0.037597656
0.052560605 -0.0057383887 0.25937515 0.036865234
0.055140361 -0.0058919513 0.26631621 0.034179688
0.057020787 -0.0059659472 0.2696608 0.034667969
0.058928348 -0.0060397037 0.27299461 0.032958984
0.061387584 -0.0061659208 0.27869961 0.032226562
0.063358925 -0.0062391446 0.28200933 0.031005859
0.063722953 -0.0061543183 0.2781752 0.030517578
0.063499197 -0.0060169972 0.27196828 0.029541016
0.063786998 -0.0059323371 0.26814163 0.025146484
-0.027186273 -0.0045510945 0.25713682 0.027099609
-0.027540656 -0.004810873 0.27181432 0.030761719
-0.025060426 -0.0045766016 0.258578 0.030029297
-0.024043558 -0.0045999894 0.25989941 0.030761719
-0.023656979 -0.0047523319 0.26850674 0.031738281
-0.021872187 -0.0046250457 0.26131508 0.032714844
-0.02005353 -0.0044760583 0.25289729 0.032470703
-0.018945837 -0.0044775694 0.25298265 0.032958984
-0.017922809 -0.0045005288 0.25427988 0.033447266
-0.016727244 -0.0044803359 0.25313899 0.034667969
-0.01569155 -0.0045031374 0.25442728 0.035400391
-0.014016652 -0.0043318989 0.24475229 0.035888672
-0.013714206 -0.0045916294 0.25942707 0.035888672
-0.012219951 -0.0044632806 0.25217536 0.036621094
-0.010789238 -0.0043347916 0.24491572 0.037109375
-0.010050334 -0.0044865799 0.25349176 0.038330078
-0.008720316 -0.0043794508 0.24743897 0.038574219
-0.007481013 -0.0042937798 0.24259856 0.040283203
-0.0065742382 -0.0044022184 0.24872534 0.040527344
-0.0055059744 -0.0044242698 0.24997124 0.040039062
-0.0043406975 -0.0043599047 0.24633461 0.041748047
-0.0032073921 -0.004295445 0.24269266 0.041748047
-0.0020738917 -0.0041661365 0.23538671 0.043457031
-0.0010530949 -0.0042310185 0.23905253 0.044921875
0 -0.0042742332 0.24149418 0.047119141
0.0010262302 -0.0041230842 0.23295426 0.047119141
0.0021276195 -0.0042740675 0.24148482 0.047607422
0.0030623341 -0.0041011786 0.2317166 0.051025391
0.0041687889 -0.0041872351 0.23657879 0.053955078
0.0052911071 -0.0042516156 0.24021627 0.060791016
0.0060908385 -0.0040785256 0.23043671 0.071533203
0.0069923038 -0.0040132818 0.22675042 0.084472656
0.0077322996 -0.003883257 0.21940401 0.083740234
0.0093255499 -0.0041630287 0.2352111 0.067871094
0.010359815 -0.0041622622 0.23516783 0.060546875
0.010980248 -0.0040104846 0.22659236 0.057861328
0.012362103 -0.004138934 0.23384976 0.055908203
0.013249571 -0.0040948293 0.23135789 0.055419922
0.014415204 -0.0041368534 0.23373222 0.054443359
0.015440534 -0.0041356948 0.23366675 0.053222656
0.016379219 -0.0041129235 0.23238018 0.052978516
0.017852807 -0.004219248 0.2383875 0.052490234
0.018896595 -0.004217824 0.23830706 0.052246094
0.019735834 -0.004173297 0.23579128 0.051513672
0.021730166 -0.004365264 0.2466374 0.049560547
0.021908849 -0.0041915793 0.23682423 0.049560547
0.024001535 -0.0043832245 0.24765219 0.049072266
0.025204618 -0.0044028074 0.24875861 0.049072266
0.026545085 -0.0044437568 0.25107226 0.048339844
0.02723759 -0.0043772981 0.24731731 0.048583984
0.028313259 -0.0043751597 0.24719653 0.047119141
0.029819481 -0.0044372487 0.25070453 0.046142578
0.031056968 -0.0044563408 0.25178328 0.045410156
0.031375837 -0.0043468508 0.24559706 0.044677734
0.032918904 -0.0044086082 0.24908637 0.045166016
0.034986623 -0.0045343782 0.25619236 0.044677734
0.035072058 -0.0044034058 0.24879242 0.045410156
0.036672112 -0.0044647735 0.2522597 0.043945312
0.039746702 -0.0046967734 0.26536769 0.043701172
0.039587948 -0.0045443564 0.25675613 0.043212891
0.041646868 -0.0046479055 0.26260668 0.041992188
0.042577982 -0.0046233926 0.26122168 0.041992188
0.043295033 -0.0045775371 0.25863087 0.041748047
0.045021698 -0.0046380418 0.26204938 0.040771484
0.046988398 -0.0047196313 0.26665917 0.0390625
0.048560023 -0.0047585256 0.26885673 0.038085938
0.049705677 -0.0047548199 0.26864734 0.037841797
0.051756628 -0.0048358734 0.27322686 0.038085938
0.053149272 -0.0048531312 0.27420193 0.037597656
0.052414671 -0.0046796976 0.2644029 0.036376953
0.055229641 -0.0048238277 0.27254626 0.036376953
0.057370596 -0.0049042087 0.27708778 0.035644531
0.058539536 -0.0048998799 0.27684322 0.034423828
0.059705362 -0.0048954734 0.27659425 0.032714844
0.06086801 -0.0048909867 0.27634078 0.032226562
0.063096881 -0.0049706721 0.28084299 0.030517578
0.064545304 -0.0049869926 0.28176507 0.031005859
0.066554934 -0.0050452393 0.28505602 0.030029297
0.06548591 -0.0048722718 0.27528337 0.025146484
-0.026931621 -0.0033813482 0.25472826 0.027587891
-0.026189988 -0.003431201 0.2584838 0.030273438
-0.02600343 -0.003561612 0.2683081 0.030517578
-0.024944076 -0.0035792068 0.26963359 0.031005859
-0.022588063 -0.0034032017 0.25637454 0.031494141
-0.021873675 -0.0034690201 0.26133287 0.032226562
-0.020536982 -0.0034379757 0.25899416 0.032958984
-0.019493679 -0.0034552822 0.26029792 0.032714844
-0.017838269 -0.0033594752 0.25308046 0.033691406
-0.016889235 -0.0033927932 0.25559041 0.034179688
-0.015992956 -0.0034422257 0.25931436 0.035400391
-0.014366305 -0.0033299706 0.2508578 0.035400391
-0.013393191 -0.0033631132 0.25335452 0.036132812
-0.012338865 -0.0033800346 0.25462928 0.036621094
-0.011112063 -0.0033483696 0.25224385 0.037841797
-0.0096644443 -0.0032357359 0.24375877 0.038574219
-0.0088068331 -0.0033171754 0.24989389 0.0390625
-0.0074815252 -0.0032205551 0.24261516 0.041015625
-0.0063813152 -0.0032047753 0.24142641 0.040283203
-0.0053720502 -0.0032374922 0.24389109 0.040771484
-0.0044484455 -0.0033510968 0.2524493 0.041992188
-0.0031753748 -0.0031894252 0.24027002 0.04296875
-0.002149258 -0.003238152 0.24394079 0.043457031
-0.0010155538 -0.0030601425 0.23053074 0.044189453
0 -0.0031087464 0.23419221 0.046142578
0.001037047 -0.0031249074 0.23540969 0.047119141
0.0020095562 -0.0030276719 0.22808462 0.048339844
0.0031270189 -0.0031408551 0.23661108 0.049804688
0.0041046045 -0.003092075 0.23293632 0.054443359
0.0052646091 -0.0031727422 0.23901325 0.060546875
0.0060267975 -0.0030267322 0.22801383 0.073486328
0.0070303776 -0.0030263509 0.2279851 0.086914062
0.0079905894 -0.00300973 0.22673298 0.0859375
0.0093745114 -0.0031386637 0.23644601 0.068359375
0.01057525 -0.0031866129 0.24005818 0.061035156
0.011040036 -0.0030242414 0.22782618 0.057617188
0.012427336 -0.0031205809 0.23508376 0.056152344
0.013529434 -0.0031359917 0.23624472 0.053955078
0.014416186 -0.0031028516 0.23374815 0.053710938
0.015682863 -0.003150451 0.23733397 0.053222656
0.016894901 -0.0031818107 0.23969641 0.052734375
0.017945116 -0.0031807972 0.23962006 0.053222656
0.018897882 -0.0031635833 0.23832327 0.051757812
0.020144129 -0.0031947254 0.24066932 0.051757812
0.020768173 -0.0031290103 0.23571877 0.050292969
0.021685617 -0.0031116528 0.23441119 0.048339844
0.024003165 -0.0032876418 0.24766901 0.049072266
0.026067033 -0.0034150924 0.25727028 0.048095703
0.025777411 -0.0032364335 0.24381134 0.048828125
0.026571801 -0.003202725 0.24127194 0.048583984
0.028176375 -0.0032655054 0.24600141 0.047119141
0.028380848 -0.0031673808 0.23860936 0.046875
0.030611094 -0.0032942721 0.24816851 0.045898438
0.031996232 -0.0033246009 0.25045329 0.045166016
0.033560362 -0.003370886 0.25394008 0.046142578
0.034988973 -0.0034010119 0.25620958 0.045654297
0.035925735 -0.0033829405 0.25484818 0.045410156
0.036323618 -0.0033167584 0.24986248 0.043701172
0.039026644 -0.0034587642 0.26056024 0.043457031
0.040519956 -0.0034885071 0.26280087 0.043212891
0.041267544 -0.0034541786 0.26021481 0.042480469
0.041992147 -0.0034198342 0.25762752 0.04296875
0.044506237 -0.0035291973 0.26586619 0.042236328
0.045231227 -0.00349472 0.26326892 0.040771484
0.047203194 -0.0035559046 0.26787814 0.039306641
0.047912844 -0.0035213304 0.26527354 0.0390625
0.051040459 -0.0036618786 0.27586153 0.038330078
0.051306017 -0.003595328 0.27084804 0.038085938
0.051295917 -0.0035129245 0.2646403 0.037353516
0.054078426 -0.0036211808 0.27279562 0.036376953
0.054022018 -0.0035387641 0.2665869 0.036621094
0.058116276 -0.0037259634 0.28068924 0.035644531
0.057281669 -0.0035959454 0.27089456 0.034179688
0.060996108 -0.0037509799 0.28257382 0.033447266
0.060084853 -0.0036210429 0.27278525 0.031738281
0.062031493 -0.003665057 0.27610096 0.030273438
0.062915355 -0.0036457926 0.27464971 0.031005859
0.063508622 -0.0036107341 0.27200863 0.030273438
0.064078733 -0.0035756815 0.26936802 0.025390625
-0.026291665 -0.0022006666 0.24867532 0.02734375
-0.026068294 -0.0022768385 0.25728273 0.029541016
-0.026122358 -0.0023852675 0.26953521 0.030761719
-0.023933994 -0.0022895141 0.25871506 0.030273438
-0.023338562 -0.0023441832 0.2648927 0.031494141
-0.021671249 -0.0022912777 0.25891438 0.031982422
-0.020537982 -0.0022920952 0.25900677 0.032470703
-0.01849257 -0.0021852227 0.24693018 0.032226562
-0.016981488 -0.0021320786 0.24092488 0.033447266
-0.016487915 -0.0022081158 0.2495171 0.034912109
-0.014867418 -0.0021333145 0.24106455 0.035644531
-0.014297263 -0.0022093116 0.24965219 0.036132812
-0.013393844 -0.0022421847 0.25336689 0.035888672
-0.012162345 -0.0022211198 0.25098658 0.036621094
-0.010736819 -0.0021568656 0.24372581 0.038085938
-0.0097132409 -0.0021680489 0.24498953 0.038085938
-0.0091509605 -0.0022978629 0.25965852 0.0390625
-0.0078202672 -0.0022442488 0.25360009 0.040039062
-0.0061560143 -0.0020610846 0.23290254 0.040771484
-0.0054260362 -0.0021800182 0.24634205 0.040283203
-0.0043841903 -0.0022017949 0.24880281 0.042724609
-0.0031594108 -0.0021155935 0.23906207 0.042724609
-0.0019989074 -0.0020077524 0.22687601 0.043701172
-0.001058592 -0.0021265522 0.2403004 0.044677734
0 -0.0021157779 0.2390829 0.046142578
0.0010156035 -0.0020401948 0.230542 0.047851562
0.002084882 -0.0020941072 0.23663412 0.048095703
0.0031271721 -0.0020940059 0.23662268 0.05078125
0.0039973501 -0.0020075189 0.22684962 0.055908203
0.0051574204 -0.0020720966 0.23414689 0.0625
0.0063493969 -0.0021258306 0.24021885 0.074462891
0.0072187083 -0.0020716141 0.2340924 0.097900391
0.0085924519 -0.0021576178 0.24381083 0.10083008
0.0093266433 -0.0020817583 0.2352387 0.067871094
0.010038925 -0.0020166694 0.22788362 0.060791016
0.011394818 -0.0020809521 0.2351476 0.058349609
0.012234762 -0.0020481495 0.2314409 0.055664062
0.013390607 -0.002069209 0.23382059 0.053955078
0.014041449 -0.0020147969 0.22767207 0.053222656
0.015361912 -0.0020573179 0.23247692 0.052734375
0.016123839 -0.002024398 0.22875696 0.052978516
0.018037086 -0.0021313995 0.24084815 0.052734375
0.018513111 -0.002066114 0.2334709 0.052490234
0.020552078 -0.002172949 0.24554324 0.050537109
0.021732697 -0.002182886 0.24666613 0.049804688
0.022473235 -0.0021497784 0.24292497 0.049316406
0.023415988 -0.0021381453 0.24161041 0.049804688
0.025453474 -0.0022231392 0.25121474 0.048339844
0.0253939 -0.0021255219 0.24018398 0.049072266
0.02684015 -0.002156713 0.24370857 0.047607422
0.028177733 -0.0021771088 0.24601328 0.047363281
0.029678866 -0.0022081621 0.24952231 0.047119141
0.031209892 -0.0022391421 0.25302306 0.046386719
0.032306936 -0.0022379232 0.25288531 0.045166016
0.033242341 -0.002225962 0.25153372 0.045898438
0.034495506 -0.0022353637 0.25259611 0.046386719
0.0350761 -0.0022019567 0.24882109 0.044921875
0.038080208 -0.0023181033 0.26194569 0.045410156
0.039751261 -0.0023486561 0.26539814 0.043212891
0.040150132 -0.002304445 0.26040229 0.043701172
0.040123135 -0.0022389265 0.25299868 0.042724609
0.041797914 -0.0022693439 0.25643587 0.041992188
0.043098591 -0.0022783836 0.25745738 0.041503906
0.046679195 -0.0024043969 0.27169684 0.041015625
0.047205437 -0.0023707156 0.26789087 0.038818359
0.048565548 -0.0023795334 0.26888728 0.038330078
0.047935914 -0.002292763 0.2590822 0.038330078
0.049719241 -0.0023227551 0.26247132 0.0390625
0.053387418 -0.0024374381 0.27543053 0.038330078
0.054080974 -0.0024142344 0.27280849 0.036376953
0.056204922 -0.0024545048 0.27735907 0.035888672
0.057624374 -0.002462951 0.27831346 0.035644531
0.059303187 -0.0024818995 0.28045464 0.033691406
0.061513726 -0.0025218739 0.28497174 0.033935547
0.060350053 -0.0024246834 0.27398923 0.032470703
0.063371323 -0.0024961464 0.28206453 0.031005859
0.065369643 -0.0025253417 0.28536364 0.030761719
0.066285007 -0.0025123886 0.28389993 0.030273438
0.064928591 -0.002415403 0.27294058 0.026123047
-0.025779404 -0.0010788946 0.24383019 0.02734375
-0.027421692 -0.001197523 0.27064019 0.029785156
-0.02624079 -0.0011980409 0.27075723 0.030517578
-0.023822324 -0.0011394159 0.25750798 0.031005859
-0.023446303 -0.0011775023 0.26611555 0.03125
-0.021773629 -0.0011510511 0.26013756 0.032714844
-0.020538582 -0.0011460811 0.25901434 0.033447266
-0.018766405 -0.0011087907 0.25058672 0.033935547
-0.017753892 -0.001114528 0.25188333 0.033447266
-0.016247103 -0.0010879328 0.24587283 0.034423828
-0.015919115 -0.0011421109 0.25811708 0.03515625
-0.014297682 -0.0011046882 0.24965951 0.036376953
-0.013458633 -0.0011265153 0.25459248 0.037109375
-0.011749405 -0.0010728539 0.24246499 0.036865234
-0.010790819 -0.0010838567 0.24495161 0.038085938
-0.010051807 -0.0011218094 0.25352892 0.038085938
-0.0085927034 -0.0010788407 0.24381799 0.039794922
-0.0074445116 -0.0010682073 0.24141487 0.040771484
-0.0063818144 -0.0010683421 0.2414453 0.041259766
-0.0056142323 -0.0011278149 0.25488615 0.040771484
-0.0042553684 -0.0010685493 0.24149217 0.041992188
-0.0031595032 -0.0010578277 0.23906907 0.042480469
-0.0019774716 -0.00099311082 0.22444305 0.044921875
-0.001058623 -0.0010633073 0.24030745 0.044921875
0 -0.0010741128 0.24274948 0.046142578
0.0010263807 -0.0010309223 0.23298843 0.046875
0.0020097131 -0.0010093029 0.22810246 0.048339844
0.0031111436 -0.0010416365 0.23540986 0.051269531
0.0042123846 -0.0010577559 0.23905285 0.056152344
0.0051575722 -0.0010360787 0.23415378 0.064208984
0.0056404923 -0.00094424171 0.21339862 0.088623047
0.0065045482 -0.00093333266 0.21093319 0.14575195
0.0053274762 -0.00066888123 0.15116715 0.20507812
0.010245112 -0.0011433826 0.25840449 0.070800781
0.010146591 -0.0010191489 0.23032762 0.060302734
0.01133611 -0.0010351154 0.23393607 0.058105469
0.012428306 -0.0010402749 0.23510213 0.056152344
0.012833041 -0.00099152501 0.22408463 0.0546875
0.014642582 -0.0010505265 0.23741899 0.053466797
0.015925379 -0.0010663897 0.24100406 0.052734375
0.016467378 -0.0010337651 0.23363093 0.052978516
0.017946513 -0.0010603485 0.23963875 0.053466797
0.019188628 -0.0010707519 0.24198993 0.051025391
0.020654425 -0.001091885 0.24676602 0.05078125
0.021626271 -0.0010860981 0.24545819 0.049316406
0.022024412 -0.0010534221 0.23807339 0.048095703
0.023887357 -0.0010905933 0.24647409 0.048583984
0.023855643 -0.0010417913 0.23544483 0.048095703
0.025651148 -0.001073527 0.2426171 0.048828125
0.026707394 -0.0010730228 0.24250314 0.049316406
0.028594984 -0.0011046735 0.24965619 0.047851562
0.029535649 -0.0010987533 0.24831825 0.047119141
0.031360127 -0.0011249603 0.25424102 0.045410156
0.031534951 -0.0010922238 0.24684256 0.045654297
0.032763828 -0.0010969599 0.24791294 0.046142578
0.033671223 -0.0010909744 0.24656025 0.046142578
0.035758212 -0.0011223886 0.25365981 0.045166016
0.036326405 -0.0011056711 0.24988164 0.043945312
0.038126174 -0.0011263198 0.25454828 0.043701172
0.039407745 -0.0011309176 0.25558737 0.043457031
0.04031536 -0.0011248263 0.25421074 0.043457031
0.042976547 -0.0011666678 0.26366693 0.042724609
0.045315228 -0.0011977826 0.27069885 0.042724609
0.045854319 -0.0011809542 0.26689565 0.041015625
0.045724951 -0.001148182 0.25948912 0.039550781
0.047482844 -0.0011632425 0.26289281 0.038330078
0.049490798 -0.0011835663 0.26748598 0.038085938
0.051082857 -0.0011932299 0.26966998 0.038085938
0.051764041 -0.0011816609 0.26705539 0.037597656
0.052659281 -0.0011753842 0.26563683 0.035888672
0.055479698 -0.001211417 0.27378026 0.036132812
0.055647418 -0.0011892265 0.26876518 0.035644531
0.057285968 -0.0011987385 0.27091488 0.034912109
0.05945636 -0.0012187641 0.27544066 0.034179688
0.060876537 -0.001222918 0.2763795 0.032226562
0.06310571 -0.0012428419 0.28088227 0.030517578
0.062920034 -0.0012153547 0.27467015 0.031005859
0.064068042 -0.0012141798 0.27440464 0.030273438
0.066906534 -0.0012444922 0.28125525 0.024902344
-0.026805712 0 0.25353736 0.027099609
-0.026438214 0 0.26093367 0.029785156
-0.025535008 0 0.26347482 0.030273438
-0.024272034 0 0.26236913 0.03125
-0.022375911 0 0.2539666 0.031494141
-0.021570345 0 0.25770888 0.033447266
-0.021117335 0 0.26631308 0.033691406
-0.018857688 0 0.2518056 0.033935547
-0.017925601 0 0.25431949 0.034179688
-0.017051583 0 0.25804728 0.034423828
-0.015243452 0 0.24716167 0.035400391
-0.01478604 0 0.258187 0.035888672
-0.013265578 0 0.2509405 0.036865234
-0.012221863 0 0.25221479 0.037597656
-0.010522493 0 0.23886061 0.038085938
-0.0097619472 0 0.24621801 0.0390625
-0.0087216804 0 0.24747768 0.040039062
-0.0075573809 0 0.24507506 0.040283203
-0.0065430352 0 0.24754484 0.040771484
-0.0054531116 0 0.24757127 0.041259766
-0.0043198862 0 0.24515353 0.042480469
-0.0032078945 0 0.24273066 0.042724609
-0.002063469 0 0.23420374 0.043945312
-0.0010747547 0 0.24396934 0.045166016
0 0 0.23665257 0.045410156
0.0010478859 0 0.2378701 0.046142578
0.0021279524 0 0.24152261 0.047851562
0.0031756544 0 0.24029118 0.049804688
0.0041909344 0 0.23783551 0.053466797
0.0053187981 0 0.24147345 0.060791016
0.0062207179 0 0.23535049 0.077392578
0.0074445843 0 0.24141723 0.10424805
0.0085498244 0 0.24260126 0.10644531
0.0098585999 0 0.24865583 0.068603516
0.0098782592 0 0.22423649 0.060058594
0.010981964 0 0.22662778 0.056640625
0.012686014 0 0.23997709 0.055175781
0.013391131 0 0.23382974 0.054199219
0.014492542 0 0.23498622 0.053466797
0.015201646 0 0.23005158 0.054199219
0.016724844 0 0.23728372 0.052001953
0.017582288 0 0.23477527 0.052978516
0.019381665 0 0.24442436 0.052001953
0.019637154 0 0.23461232 0.05078125
0.021947663 0 0.249106 0.049072266
0.0232607 0 0.25143707 0.049072266
0.02353457 0 0.24283396 0.048828125
0.025700403 0 0.2536518 0.048583984
0.026036169 0 0.24625877 0.049072266
0.027375342 0 0.2485681 0.049072266
0.028872883 0 0.25208247 0.048339844
0.029247783 0 0.24589802 0.046386719
0.030912424 0 0.25061142 0.045654297
0.031999007 0 0.25047499 0.045410156
0.032444496 0 0.24549666 0.046142578
0.034331772 0 0.25139716 0.045898438
0.035758559 0 0.25366229 0.046386719
0.036326755 0 0.24988402 0.044433594
0.039030008 0 0.26058272 0.043457031
0.039222233 0 0.25438419 0.043212891
0.042608581 0 0.2686708 0.042480469
0.04278072 0 0.26246548 0.042724609
0.044912856 0 0.26829523 0.042724609
0.045854758 0 0.26689819 0.041503906
0.047207229 0 0.26790103 0.039794922
0.047700111 0 0.26409572 0.038085938
0.050600938 0 0.27348602 0.038574219
0.050856311 0 0.26847401 0.037841797
0.051996656 0 0.26825547 0.037109375
0.053371396 0 0.26922905 0.036132812
0.055480219 0 0.27378282 0.035888672
0.056142598 0 0.27115679 0.035400391
0.057286505 0 0.27091742 0.035400391
0.05997169 0 0.27782804 0.034423828
0.061401911 0 0.27876467 0.032226562
0.063373692 0 0.28207505 0.03125
0.059924401 0 0.26159307 0.031005859
0.065732755 0 0.28153464 0.030029297
0.064648688 0 0.27176392 0.025146484
-0.026548937 0.0011111003 0.25110868 0.026611328
-0.025331251 0.0011062319 0.25000843 0.030029297
-0.025652433 0.001171179 0.26468647 0.030273438
-0.024384171 0.0011662889 0.26358128 0.030761719
-0.022911001 0.0011506188 0.26003987 0.031494141
-0.021570139 0.0011402938 0.25770637 0.032958984
-0.020345731 0.0011353198 0.25658229 0.032958984
-0.019039704 0.0011249383 0.25423604 0.033203125
-0.01749659 0.0010983755 0.24823287 0.033691406
-0.016970985 0.0011364052 0.25682756 0.034423828
-0.015318394 0.0010990124 0.2483768 0.03515625
-0.014437171 0.0011154655 0.25209519 0.036132812
-0.013007864 0.0010887851 0.24606544 0.036621094
-0.012044617 0.0010998101 0.24855708 0.037353516
-0.010522391 0.001056895 0.23885827 0.038330078
-0.0099068293 0.0011056294 0.24987225 0.0390625
-0.0088504851 0.0011112059 0.25113252 0.040527344
-0.0076701031 0.0011005773 0.24873047 0.041259766
-0.0064785085 0.0010845291 0.24510357 0.041748047
-0.0055873697 0.0011224186 0.25366658 0.041503906
-0.0042338767 0.0010631527 0.24027251 0.041259766
-0.0031595032 0.0010578277 0.23906907 0.042236328
-0.0021494259 0.0010794684 0.24395986 0.043457031
-0.001058623 0.0010633073 0.24030745 0.044433594
0 0.0010903054 0.24640901 0.045410156
0.0010478755 0.0010525123 0.23786777 0.046875
0.0021171845 0.0010632763 0.24030046 0.048095703
0.0031111436 0.0010416365 0.23540986 0.049316406
0.0042123846 0.0010577559 0.23905285 0.053466797
0.0050501227 0.0010144938 0.22927558 0.060791016
0.005995038 0.001003594 0.22681226 0.071289062
0.0073317159 0.0010520223 0.23775707 0.088134766
0.0079052867 0.0009925334 0.22431253 0.090332031
0.0092785917 0.0010355164 0.2340267 0.067871094
0.010200277 0.0010245411 0.23154628 0.060058594
0.011158983 0.0010189418 0.23028082 0.057861328
0.012041934 0.0010079347 0.22779325 0.054931641
0.013112021 0.0010130799 0.22895604 0.054199219
0.014792763 0.0010613012 0.23985407 0.053710938
0.015764516 0.001055618 0.23856968 0.052490234
0.016810449 0.001055302 0.23849824 0.052490234
0.018128712 0.0010711134 0.24207161 0.052734375
0.018706502 0.0010438486 0.23590977 0.052001953
0.019636964 0.0010380975 0.23461005 0.051513672
0.020876845 0.0010484611 0.23695222 0.049560547
0.02247389 0.0010749206 0.24293205 0.048583984
0.023534343 0.0010744762 0.24283162 0.048828125
0.025823118 0.0011277121 0.25486293 0.048583984
0.026805449 0.0011218357 0.25353488 0.049316406
0.026306782 0.0010569275 0.2388656 0.049072266
0.026651634 0.0010295985 0.23268926 0.047607422
0.030400109 0.001130912 0.25558609 0.046386719
0.031210795 0.0011196034 0.25303036 0.046386719
0.031534951 0.0010922238 0.24684256 0.044677734
0.033722769 0.0011290661 0.25516894 0.045654297
0.03466155 0.0011230619 0.25381199 0.046386719
0.035928492 0.0011277334 0.25486773 0.044677734
0.038256794 0.0011644266 0.26316038 0.042724609
0.037945479 0.0011209818 0.25334188 0.043212891
0.039407745 0.0011309176 0.25558737 0.04296875
0.041079633 0.0011461501 0.2590299 0.043212891
0.042387828 0.0011506861 0.26005507 0.042724609
0.042898413 0.0011339008 0.25626159 0.043457031
0.043375708 0.0011171189 0.25246885 0.040283203
0.04593664 0.0011534976 0.26069045 0.040039062
0.048350111 0.001184489 0.26769453 0.038574219
0.048825003 0.0011676439 0.26388752 0.037597656
0.050855827 0.0011879269 0.26847145 0.037841797
0.051531911 0.0011763619 0.26585782 0.037597656
0.055505726 0.0012389184 0.27999556 0.036132812
0.056933314 0.0012431572 0.28095353 0.03515625
0.05713135 0.0012209392 0.27593225 0.035888672
0.057790689 0.0012092999 0.27330181 0.03515625
0.059971135 0.0012293162 0.27782547 0.034179688
0.061663736 0.0012387317 0.27995336 0.032470703
0.061768722 0.0012165104 0.27493137 0.032226562
0.064554326 0.0012469223 0.28180444 0.031005859
0.066009499 0.0012509731 0.28271994 0.029785156
0.064365782 0.001197233 0.27057469 0.025878906
-0.026932923 0.0022543413 0.25474057 0.026123047
-0.026437186 0.0023090579 0.26092353 0.030273438
-0.026122358 0.0023852675 0.26953521 0.030029297
-0.024383459 0.0023325095 0.26357359 0.030761719
-0.022696218 0.0022796644 0.25760207 0.031494141
-0.021874737 0.0023127922 0.26134554 0.031982422
-0.021309363 0.0023781834 0.26873475 0.033203125
-0.018583667 0.0021959874 0.24814658 0.033203125
-0.018267965 0.0022935995 0.25917676 0.034179688
-0.016487915 0.0022081158 0.2495171 0.034423828
-0.015618296 0.0022410576 0.25323951 0.035644531
-0.014715719 0.0022739742 0.25695908 0.035400391
-0.013522631 0.0022637441 0.25580311 0.036865234
-0.011985224 0.0021887736 0.24733143 0.037353516
-0.010951555 0.0022000028 0.24860032 0.038085938
-0.0098098898 0.0021896216 0.24742724 0.038330078
-0.0088072633 0.0022115584 0.24990609 0.039794922
-0.0076322802 0.0021903005 0.24750395 0.040771484
-0.0063816272 0.0021366216 0.24143824 0.040039062
-0.0053991745 0.0021692261 0.24512254 0.040771484
-0.0042337524 0.0021262432 0.24026546 0.041748047
-0.0032077692 0.0021479751 0.24272119 0.042724609
-0.0021171225 0.0021264905 0.24029341 0.042724609
-0.0010317242 0.0020725788 0.2342014 0.044189453
0 0.0021373676 0.24152252 0.045166016
0.0010747127 0.0021589363 0.2439598 0.046386719
0.002149363 0.0021588735 0.24395271 0.046875
0.0031916499 0.0021371813 0.2415015 0.049560547
0.0039973501 0.0020075189 0.22684962 0.053710938
0.0051842821 0.0020828885 0.2353664 0.060791016
0.0061882446 0.0020718756 0.23412192 0.072753906
0.0070683188 0.0020284555 0.22921547 0.091064453
0.0077332067 0.0019418561 0.21942975 0.097412109
0.0092299953 0.0020601857 0.23280101 0.067626953
0.010307346 0.0020705909 0.23397677 0.060302734
0.011040575 0.0020162591 0.22783731 0.057861328
0.012299156 0.0020589293 0.23265903 0.056152344
0.013111636 0.0020261004 0.22894934 0.053710938
0.014266714 0.0020471199 0.23132455 0.052978516
0.015764056 0.0021111742 0.23856269 0.052978516
0.016295368 0.0020459341 0.23119055 0.052490234
0.017945992 0.002120635 0.23963176 0.052246094
0.018609533 0.002076875 0.2346869 0.051757812
0.020246848 0.0021406775 0.24189655 0.051513672
0.020662121 0.0020753548 0.23451507 0.049560547
0.022585601 0.0021605273 0.24413958 0.048828125
0.023768993 0.0021703786 0.24525277 0.049072266
0.024592731 0.0021479607 0.24271956 0.048828125
0.0253939 0.0021255219 0.24018398 0.049072266
0.026306018 0.0021137933 0.23885864 0.048828125
0.028594151 0.0022092827 0.24964894 0.047119141
0.02996701 0.0022296007 0.25194487 0.047607422
0.032255195 0.0023141371 0.2614975 0.046630859
0.032925248 0.002280754 0.25772521 0.045898438
0.032762885 0.0021938568 0.24790582 0.046386719
0.034990657 0.0022674503 0.25622189 0.045898438
0.034905825 0.0021912674 0.24761321 0.044677734
0.037027299 0.0022540083 0.25470296 0.043212891
0.038305763 0.0022632505 0.25574729 0.042480469
0.039964255 0.0022937763 0.25919673 0.043212891
0.040696323 0.0022709111 0.25661296 0.042236328
0.041994151 0.0022799983 0.2576398 0.042724609
0.043299988 0.0022890305 0.25866044 0.041992188
0.045233376 0.0023299244 0.26328143 0.040527344
0.046782073 0.0023494535 0.26548827 0.040039062
0.047481492 0.0023264186 0.26288533 0.038818359
0.049933247 0.0023882948 0.26987728 0.038330078
0.051308442 0.0023969985 0.27086085 0.038818359
0.051066224 0.0023314625 0.26345527 0.038085938
0.054318175 0.0024248234 0.27400503 0.03515625
0.053540036 0.0023381277 0.26420844 0.035644531
0.056140486 0.0023995272 0.2711466 0.03515625
0.057284355 0.0023974092 0.27090725 0.034912109
0.058682542 0.0024058041 0.27185586 0.033935547
0.061662007 0.002477394 0.27994552 0.032470703
0.063371323 0.0024961464 0.28206453 0.031494141
0.065642022 0.002535864 0.28655267 0.03125
0.064066254 0.0024282918 0.27439699 0.030029297
0.067186974 0.0024994172 0.28243414 0.026123047
-0.027059868 0.0033974501 0.25594124 0.026611328
-0.02668182 0.0034956369 0.26333797 0.030029297
-0.025415115 0.0034810323 0.26223776 0.029541016
-0.024494635 0.0035147169 0.26477534 0.03125
-0.022052802 0.0033225573 0.2502993 0.032470703
-0.021466723 0.0034044802 0.25647083 0.032226562
-0.020344147 0.0034056942 0.25656229 0.033203125
-0.019402586 0.0034391358 0.25908157 0.033447266
-0.017924031 0.0033756266 0.2542972 0.033691406
-0.016889235 0.0033927932 0.25559041 0.034912109
-0.015917873 0.0034260654 0.25809693 0.03515625
-0.014296566 0.0033138057 0.24964003 0.035644531
-0.013521971 0.0033954505 0.25579062 0.036376953
-0.012279826 0.0033638622 0.25341094 0.037353516
-0.011273107 0.0033968969 0.25589958 0.037597656
-0.0098577328 0.0033004505 0.24863394 0.038085938
-0.0088497931 0.0033333569 0.25111288 0.040039062
-0.0073687383 0.0031720041 0.23895764 0.041015625
-0.0064135441 0.003220961 0.24264574 0.041015625
-0.0053451895 0.0032213046 0.24267162 0.040527344
-0.0042120544 0.0031730193 0.23903412 0.041015625
-0.0031592562 0.0031732351 0.23905036 0.041748047
-0.002149258 0.003238152 0.24394079 0.04296875
-0.0010746602 0.0032382461 0.24394788 0.044921875
0 0.0031573204 0.23785147 0.045166016
0.0010531669 0.003173481 0.23906891 0.046386719
0.0021170191 0.0031895798 0.24028167 0.046630859
0.0031431376 0.003157045 0.23783073 0.048339844
0.0041690748 0.0031406416 0.236595 0.052246094
0.0051840283 0.0031241798 0.23535489 0.060058594
0.0060267975 0.0030267322 0.22801383 0.075927734
0.0069175907 0.0029777996 0.22432758 0.10595703
0.0070025059 0.0026375591 0.19869611 0.12426758
0.0098094111 0.0032842718 0.24741516 0.068115234
0.010092116 0.0030410315 0.22909106 0.061279297
0.010980999 0.003008069 0.22660786 0.057373047
0.012813678 0.0032175938 0.24239206 0.055175781
0.013250476 0.0030713321 0.23137368 0.0546875
0.014266017 0.0030705302 0.23131327 0.053955078
0.015361164 0.0030858265 0.2324656 0.052734375
0.017237945 0.0032464159 0.24456334 0.053466797
0.017307471 0.003067774 0.23110564 0.053710938
0.018801464 0.0031474426 0.23710735 0.052001953
0.019635439 0.0031140505 0.23459181 0.051513672
0.021303434 0.0032096547 0.24179398 0.048583984
0.023258666 0.0033373686 0.2514151 0.049560547
0.024356151 0.0033359893 0.25131118 0.048828125
0.023976751 0.0031412404 0.23664011 0.049316406
0.02513618 0.0031559251 0.23774637 0.049072266
0.02630475 0.0031705368 0.23884712 0.049316406
0.027759975 0.0032172468 0.24236593 0.048339844
0.02895711 0.0032316931 0.2434542 0.046630859
0.03150703 0.0033906898 0.25543198 0.045898438
0.031841662 0.0033085402 0.24924338 0.045410156
0.031802438 0.0031943158 0.24063846 0.046630859
0.034328803 0.0033368419 0.25137544 0.045654297
0.034733884 0.0032707104 0.2463935 0.045654297
0.037902907 0.0034609654 0.26072606 0.04296875
0.037039179 0.0032826236 0.24729098 0.042724609
0.039962344 0.0034405002 0.25918433 0.042724609
0.041458599 0.0034701703 0.2614195 0.042480469
0.04277705 0.0034837564 0.26244301 0.042236328
0.04329792 0.0034333819 0.25864813 0.041992188
0.045231227 0.00349472 0.26326892 0.040283203
0.047203194 0.0035559046 0.26787814 0.039550781
0.047912844 0.0035213304 0.26527354 0.038818359
0.049043223 0.0035185877 0.26506695 0.038085938
0.052668124 0.0036907792 0.27803868 0.037841797
0.052456457 0.0035924022 0.27062762 0.037841797
0.052655309 0.0035258865 0.2656168 0.035644531
0.05474877 0.0035863707 0.27017328 0.03515625
0.055890545 0.0035832669 0.26993945 0.035400391
0.059552748 0.003738516 0.28163487 0.03515625
0.059194539 0.0036401919 0.27422777 0.033691406
0.061659131 0.0037159175 0.27993244 0.032714844
0.0596251 0.003522878 0.26539013 0.031738281
0.064821884 0.0037562714 0.28297246 0.030761719
0.065172605 0.0037053383 0.2791355 0.029785156
0.065207869 0.0036386889 0.27411455 0.026367188
-0.027314508 0.0045725615 0.25834972 0.025878906
-0.026802961 0.00468201 0.26453355 0.030029297
-0.0256487 0.0046840343 0.26464793 0.029541016
-0.024492972 0.004685971 0.26475736 0.030761719
-0.022479482 0.0045157899 0.25514212 0.03125
-0.020854875 0.0044099274 0.24916089 0.032470703
-0.020246351 0.004519097 0.25532898 0.032958984
-0.018763667 0.0044345157 0.25055012 0.032958984
-0.017236769 0.0043282597 0.24454668 0.034179688
-0.016083891 0.0043080156 0.24340287 0.035644531
-0.015090916 0.0043307682 0.24468842 0.035888672
-0.014713997 0.0045474158 0.25692901 0.035888672
-0.01319912 0.004419174 0.24968335 0.037597656
-0.011865751 0.0043339105 0.24486595 0.036376953
-0.011218661 0.0045073205 0.25466362 0.037841797
-0.0099053774 0.0044218698 0.24983564 0.0390625
-0.008548487 0.0042931563 0.24256332 0.040527344
-0.0076689785 0.0044016638 0.24869402 0.041259766
-0.0064131049 0.0042943205 0.24262913 0.040283203
-0.0053985408 0.0043379427 0.24509376 0.040283203
-0.0042117662 0.0042304024 0.23901774 0.041503906
-0.0031268045 0.0041875197 0.23659486 0.042480469
-0.0021383651 0.0042956537 0.24270444 0.043457031
-0.0010853325 0.0043605394 0.24637046 0.044189453
0 0.0042742332 0.24149418 0.045166016
0.0010584678 0.0042526051 0.24027219 0.046630859
0.0022028384 0.0044251708 0.25002217 0.047119141
0.0031590394 0.0042306897 0.23903398 0.048339844
0.0041687889 0.0041872351 0.23657879 0.052001953
0.0052373903 0.0042084521 0.23777753 0.058837891
0.0060263849 0.0040353667 0.22799823 0.075927734
0.0069171176 0.003970128 0.22431225 0.10205078
0.0075604706 0.0037969626 0.21452837 0.109375
0.009663783 0.0043140193 0.24374209 0.068115234
0.010037749 0.0040328656 0.22785692 0.060058594
0.011570583 0.0042261016 0.23877475 0.056396484
0.012233331 0.0040958198 0.23141383 0.055664062
0.013179836 0.004073278 0.23014021 0.054443359
0.014490282 0.0041583995 0.23494957 0.053955078
0.015360115 0.0041141547 0.23244974 0.053466797
0.016550729 0.0041559907 0.23481347 0.053710938
0.017670637 0.0041761943 0.23595497 0.052490234
0.018318128 0.0040887068 0.23101194 0.052001953
0.020346221 0.004302368 0.24308379 0.051025391
0.021837212 0.0043867677 0.24785236 0.050048828
0.022358261 0.0042775604 0.24168216 0.049072266
0.02282499 0.0041683605 0.23551239 0.048828125
0.02471282 0.004316899 0.2439048 0.048828125
0.025775664 0.0043149525 0.24379481 0.049316406
0.026436483 0.0042485539 0.24004328 0.049316406
0.02886842 0.0044609471 0.25204352 0.048339844
0.029819481 0.0044372487 0.25070453 0.047119141
0.03180353 0.0045634643 0.25783575 0.045410156
0.032148637 0.0044539161 0.25164625 0.046142578
0.034037504 0.0045584152 0.25755045 0.045654297
0.035151653 0.0045557665 0.25740078 0.045410156
0.036093574 0.0045316601 0.25603881 0.044189453
0.036847573 0.0044861357 0.25346667 0.043945312
0.038843371 0.0045900284 0.25933659 0.042480469
0.040517248 0.0046510315 0.26278329 0.043701172
0.041073747 0.0045839436 0.25899282 0.042480469
0.04218556 0.0045807809 0.25881413 0.041748047
0.043093659 0.0045562461 0.2574279 0.040771484
0.045847781 0.0047231433 0.26685759 0.040283203
0.045083463 0.0045282948 0.25584865 0.039306641
0.048126452 0.0047160387 0.26645619 0.038818359
0.049927574 0.0047760466 0.26984665 0.037841797
0.051075619 0.0047722436 0.26963174 0.038818359
0.051524621 0.0047047818 0.26582018 0.037841797
0.054312035 0.0048490982 0.27397403 0.035400391
0.057409756 0.0050142417 0.28330466 0.035400391
0.055145014 0.0047139591 0.26633868 0.034667969
0.058791865 0.004921 0.2780365 0.035400391
0.057903904 0.0047477651 0.26824871 0.033203125
0.058769114 0.0047223321 0.26681179 0.032714844
0.061225362 0.0048232367 0.27251288 0.031738281
0.059915476 0.0046292758 0.26155409 0.027587891
0.065445691 0.0049611526 0.28030512 0.030029297
0.067179509 0.0049982788 0.28240275 0.026367188
-0.026927451 0.0056347079 0.2546888 0.026367188
-0.02692356 0.0058788457 0.26572382 0.029541016
-0.02447002 0.0055859755 0.25248611 0.030273438
-0.024266146 0.005803219 0.2623055 0.031494141
-0.022798622 0.0057248757 0.25876439 0.030761719
-0.021158218 0.0055925888 0.252785 0.032470703
-0.020051772 0.0055945828 0.25287512 0.034667969
-0.019126331 0.0056502833 0.25539279 0.034179688
-0.018264228 0.005732826 0.25912374 0.033447266
-0.01712784 0.0057345419 0.25920129 0.034423828
-0.015765244 0.0056553576 0.25562218 0.035888672
-0.014642975 0.0056568333 0.25568888 0.036132812
-0.013584242 0.0056851455 0.25696859 0.036865234
-0.012100822 0.0055247112 0.24971695 0.037597656
-0.010841964 0.0054449686 0.24611259 0.038818359
-0.010146079 0.005661652 0.25590667 0.0390625
-0.0088054547 0.0055277608 0.2498548 0.039550781
-0.0076683043 0.0055015958 0.24867213 0.041748047
-0.0065092118 0.0054483446 0.24626519 0.041259766
-0.005451777 0.0054759006 0.24751069 0.040527344
-0.0042113955 0.0052875378 0.23899671 0.041259766
-0.003239342 0.0054227919 0.2451102 0.042236328
-0.002159666 0.0054230555 0.24512209 0.043212891
-0.0010476296 0.0052613262 0.23781194 0.044433594
0 0.0053423215 0.24147293 0.045410156
0.0010207674 0.0051264199 0.23171419 0.046875
0.0020844538 0.0052341931 0.23658551 0.046142578
0.0030298324 0.0050720642 0.2292573 0.048095703
0.0042113955 0.0052875378 0.23899671 0.051757812
0.0051295045 0.0051522017 0.23287952 0.059814453
0.0061869738 0.0051786248 0.23407385 0.070068359
0.0071796379 0.0051510041 0.23282538 0.084472656
0.0076457118 0.0047997143 0.21694709 0.091308594
0.0092764152 0.0051763677 0.23397182 0.068359375
0.010358906 0.0052023707 0.23514718 0.059814453
0.011156368 0.0050935145 0.23022686 0.056884766
0.012425398 0.0052001569 0.23504709 0.0546875
0.013387864 0.0051719625 0.2337727 0.0546875
0.014639156 0.0052514039 0.23736346 0.054199219
0.016162891 0.0054114694 0.24459842 0.053955078
0.016806521 0.0052752765 0.23844251 0.053222656
0.018124478 0.005354316 0.24201508 0.053466797
0.018316522 0.0051104361 0.23099171 0.051757812
0.020039273 0.0052968268 0.23941658 0.051513672
0.021621229 0.005429225 0.24540098 0.049804688
0.022356311 0.005346484 0.24166109 0.049316406
0.023528866 0.0053711305 0.2427751 0.049316406
0.024095971 0.0052614328 0.23781675 0.049072266
0.025773419 0.0053932206 0.24377358 0.047851562
0.027101714 0.0054443264 0.24608357 0.048095703
0.028449573 0.0054952796 0.24838665 0.048095703
0.028520504 0.0053049447 0.23978351 0.047119141
0.031203575 0.005596722 0.25297183 0.045166016
0.032300405 0.0055936771 0.2528342 0.045654297
0.032117121 0.0053765387 0.24301955 0.045654297
0.035478652 0.0057476829 0.25979528 0.045654297
0.035920218 0.0056373687 0.25480905 0.045166016
0.037721645 0.0057406905 0.25947919 0.044189453
0.039562624 0.0058437763 0.2641387 0.042236328
0.039398704 0.0056532905 0.25552872 0.041748047
0.040879197 0.0057027889 0.25776607 0.042480469
0.042378131 0.0057521141 0.25999558 0.040771484
0.044700809 0.0059077106 0.26702851 0.040771484
0.045430854 0.0058502401 0.26443085 0.041015625
0.048889164 0.0061381855 0.277446 0.039306641
0.048772648 0.005974202 0.27003393 0.037597656
0.047926389 0.0057307682 0.25903073 0.038085938
0.049936365 0.005832246 0.26361755 0.038330078
0.05314476 0.006065899 0.27417865 0.038330078
0.052647378 0.0058755926 0.26557678 0.036621094
0.056193825 0.0061350516 0.27730432 0.035888672
