# .PCD v0.7 - Point Cloud Data file format
VERSION 0.7
FIELDS x y z intensity
SIZE 4 4 4 4
TYPE F F F F
COUNT 1 1 1 1
WIDTH 1018
HEIGHT 1
VIEWPOINT 0 0 0 1 0 0 0
POINTS 1018
DATA ascii
0.025521364 0.077970967 0.24138957 0.032470703
0.028353468 0.083158456 0.25744948 0.033447266
0.028549336 0.080512427 0.24925765 0.03515625
0.02949656 0.080102824 0.24798959 0.036376953
0.031427678 0.082299002 0.2547887 0.032470703
0.030914685 0.078164056 0.24198736 0.025878906
0.044328943 0.085535035 0.26480711 0.016357422
0.042906847 0.080668174 0.24973984 0.028808594
0.047406714 0.08690007 0.2690331 0.029296875
0.048351645 0.086470447 0.26770303 0.028808594
0.050553516 0.088255614 0.27322972 0.028076172
0.051286921 0.087453753 0.27074724 0.024658203
0.053104632 0.088495255 0.27397162 0.021728516
0.053139895 0.086586155 0.26806125 0.017089844
0.055895705 0.089096546 0.27583316 0.016113281
0.055415224 0.086451299 0.26764375 0.018798828
0.057270754 0.087484658 0.27084291 0.021728516
0.057188835 0.085576676 0.26493603 0.024169922
0.062311236 0.091376945 0.28289303 0.0234375
0.061973296 0.089099377 0.27584192 0.0234375
0.064952523 0.091586806 0.28354272 0.01953125
-0.025956422 0.08388149 0.25617859 0.027099609
-0.025732636 0.086938217 0.26551402 0.028808594
-0.023824308 0.084323786 0.25752941 0.030029297
-0.022799693 0.084732138 0.25877655 0.031494141
-0.021183424 0.082868911 0.25308615 0.031738281
-0.020716641 0.085545272 0.26125988 0.031982422
-0.019311888 0.08443547 0.2578705 0.031982422
-0.017855005 0.082944788 0.25331789 0.033203125
-0.016361324 0.081073008 0.24760136 0.033447266
-0.01520306 0.080714598 0.24650675 0.034667969
-0.014717096 0.084144913 0.25698313 0.034912109
-0.013343154 0.082646862 0.252408 0.03515625
-0.012009212 0.081146717 0.24782646 0.036865234
-0.01091947 0.081161626 0.24787199 0.037353516
-0.010150672 0.083830379 0.25602251 0.036376953
-0.0086158281 0.080049053 0.24447414 0.039550781
-0.007504107 0.079680137 0.24334747 0.039306641
-0.006340927 0.078550801 0.23989838 0.039794922
-0.0053356737 0.079317391 0.24223961 0.039794922
-0.0043097259 0.080082715 0.24457695 0.041748047
-0.0031558934 0.078189813 0.23879592 0.042236328
-0.0021653033 0.080470718 0.24576193 0.04296875
-0.001092894 0.081232004 0.24808694 0.043212891
0 0.080473542 0.24577056 0.043701172
0.0010418242 0.077436119 0.23649409 0.043457031
0.0020835937 0.077434085 0.23648788 0.044433594
0.003171213 0.078569368 0.23995511 0.044677734
0.0042893006 0.079703175 0.2434178 0.046142578
0.0051314374 0.076281317 0.23296727 0.047607422
0.0062183975 0.077032916 0.23526269 0.047119141
0.0073611722 0.078162424 0.2387123 0.051025391
0.0077991625 0.072461471 0.22130124 0.057861328
0.0088186832 0.072830014 0.2224268 0.066650391
0.0098479334 0.073197171 0.22354811 0.071044922
0.010942974 0.073942102 0.22582318 0.062744141
0.012302632 0.076201916 0.23272479 0.05078125
0.013656406 0.078080423 0.23846184 0.045898438
0.014417926 0.076546244 0.23377638 0.043457031
0.015673231 0.077663392 0.23718821 0.043457031
0.016387472 0.07612741 0.23249726 0.044189453
0.018445883 0.080649123 0.24630679 0.047851562
0.018424978 0.076082297 0.23235945 0.053222656
0.019539049 0.076436169 0.23344021 0.052734375
0.021680063 0.080571175 0.24606873 0.047607422
0.022755953 0.080542445 0.24598101 0.039306641
0.024278183 0.082024314 0.2505067 0.034179688
0.025254896 0.08161442 0.24925485 0.032714844
0.026342187 0.081581123 0.24915317 0.034912109
0.027682083 0.082301527 0.25135332 0.033447266
0.028644644 0.081887804 0.25008976 0.034423828
0.028773595 0.079209901 0.24191132 0.036621094
0.031387363 0.083319359 0.25446182 0.032714844
0.030581016 0.078379601 0.23937555 0.024658203
0.042739462 0.083597749 0.25531206 0.020019531
0.045801055 0.087289087 0.26658562 0.029052734
0.047346745 0.087979048 0.26869279 0.029052734
0.048084199 0.087170132 0.26622227 0.029296875
0.051123507 0.090473309 0.27631038 0.027099609
0.05079006 0.087792888 0.26812425 0.025146484
0.054142803 0.091461256 0.27932763 0.021972656
0.055783268 0.09213838 0.28139561 0.019042969
0.057209719 0.092440248 0.28231752 0.020019531
0.055581361 0.087898292 0.26844615 0.024169922
0.058641158 0.090805136 0.27732381 0.025146484
0.058588304 0.088871799 0.27141929 0.024169922
0.061983675 0.092141747 0.28140587 0.023193359
0.062405657 0.090950035 0.27776635 0.022949219
0.062795974 0.089758918 0.27412859 0.020263672
-0.026039377 0.085286722 0.25699732 0.027099609
-0.024916941 0.085319966 0.25709751 0.029052734
-0.024006614 0.086117283 0.25950006 0.029785156
-0.022363318 0.084233515 0.25382367 0.03125
-0.021638757 0.085794084 0.25852618 0.031494141
-0.019957185 0.083522871 0.25168228 0.031738281
-0.019373113 0.085847795 0.25868803 0.031738281
-0.018157329 0.085489079 0.2576071 0.032958984
-0.016645316 0.083594836 0.25189912 0.033203125
-0.015967248 0.085917316 0.25889751 0.034423828
-0.014830218 0.085937522 0.2589584 0.035644531
-0.013203399 0.082886375 0.24976429 0.035644531
-0.011769279 0.080600142 0.24287511 0.036621094
-0.010905139 0.082150444 0.24754667 0.037109375
-0.010274957 0.086003512 0.25915724 0.037597656
-0.0086860722 0.081792243 0.24646729 0.038574219
-0.0077797445 0.083723225 0.25228599 0.038574219
-0.0065161483 0.081812255 0.2465276 0.038818359
-0.0056346138 0.084893182 0.25581145 0.039794922
-0.0042224671 0.079521582 0.23962504 0.041259766
-0.0032588427 0.081831552 0.24658576 0.042480469
-0.0021624565 0.081450932 0.24543883 0.042724609
-0.0010863568 0.081837282 0.24660301 0.04296875
0 0.079532698 0.23965853 0.043457031
0.0010455548 0.078763582 0.23734093 0.044677734
0.0021420557 0.080682524 0.24312334 0.044433594
0.0030599465 0.076837145 0.23153594 0.044189453
0.0041000773 0.077216618 0.2326794 0.046386719
0.0049972138 0.075289883 0.2268735 0.046630859
0.0064855567 0.081428163 0.24537021 0.046386719
0.0071373801 0.0768103 0.23145504 0.051269531
0.0081967162 0.077184238 0.23258182 0.05859375
0.009128198 0.076404899 0.23023345 0.066162109
0.01014076 0.076392233 0.23019527 0.070068359
0.010872573 0.074459188 0.22437036 0.062988281
0.012103116 0.075979181 0.22895062 0.051513672
0.013837122 0.080182783 0.24161744 0.046142578
0.015396988 0.082848832 0.24965115 0.043945312
0.01557635 0.078226358 0.23572211 0.044433594
0.017180253 0.080888771 0.24374484 0.046142578
0.017816344 0.07894931 0.2379006 0.052246094
0.018217796 0.076243356 0.22974665 0.056640625
0.019706724 0.078133896 0.23544349 0.053955078
0.021245154 0.080021843 0.2411325 0.044677734
0.022939656 0.082289852 0.24796675 0.037597656
0.024134794 0.082641758 0.24902718 0.032470703
0.02487169 0.081462197 0.24547276 0.033935547
0.026064305 0.081811346 0.24652487 0.036376953
0.027138811 0.081776679 0.24642041 0.034912109
0.029398413 0.085178345 0.25667077 0.033691406
0.029967794 0.083612196 0.25195146 0.036132812
0.031914011 0.085862204 0.25873145 0.031982422
0.031275559 0.081242964 0.24481215 0.024414062
0.043258887 0.085757166 0.25841492 0.024658203
0.0457424 0.088355377 0.26624423 0.029296875
0.045877662 0.086401239 0.26035574 0.029785156
0.047610566 0.08747787 0.26359999 0.029052734
0.050847314 0.091200545 0.27481765 0.027099609
0.05266805 0.092269346 0.27803832 0.026367188
0.052528974 0.0899342 0.27100176 0.026855469
0.054133534 0.090621769 0.27307361 0.026367188
0.053911697 0.088288441 0.26604253 0.026367188
0.055981427 0.089727342 0.27037838 0.026855469
0.057606924 0.090409093 0.27243274 0.025390625
0.061207499 0.094099484 0.28355312 0.024414062
0.061655972 0.092893168 0.2799181 0.022705078
0.064616747 0.095445089 0.28760788 0.023193359
0.061421324 0.088980429 0.26812768 0.020263672
-0.026938006 0.089406401 0.2658664 0.027587891
-0.024549345 0.085182078 0.2533046 0.028320312
-0.023974955 0.087150417 0.25915784 0.029541016
-0.022536837 0.08601892 0.25579312 0.030273438
-0.021899601 0.087986 0.26164261 0.03125
-0.020387944 0.086463325 0.25711462 0.031738281
-0.019002004 0.085326016 0.25373265 0.031738281
-0.018051989 0.086126357 0.25611261 0.032958984
-0.016318267 0.083045058 0.24694979 0.033203125
-0.016017288 0.087335728 0.25970885 0.034179688
-0.014215502 0.083473727 0.24822453 0.035888672
-0.012819623 0.081550196 0.24250452 0.035888672
-0.012145462 0.084285386 0.25063816 0.037109375
-0.011094237 0.084689282 0.25183919 0.037109375
-0.0098948451 0.083926186 0.24956998 0.037353516
-0.0085930917 0.081995584 0.24382898 0.037597656
-0.0077337758 0.084338233 0.2507953 0.039306641
-0.0062630819 0.079683393 0.23695326 0.038330078
-0.0053470451 0.081634715 0.24275586 0.038574219
-0.004237229 0.080863573 0.24046275 0.040771484
-0.0031781157 0.080868512 0.24047741 0.041503906
-0.0021493963 0.082038462 0.24395649 0.042724609
-0.0010747262 0.0820406 0.24396285 0.043212891
0 0.079319574 0.23587136 0.043457031
0.0010390718 0.079318874 0.2358693 0.043945312
0.0020679026 0.078928001 0.23470695 0.045166016
0.0031322776 0.079702139 0.23700899 0.044189453
0.0042576003 0.081252344 0.24161883 0.045654297
0.005066962 0.077358611 0.23004009 0.047119141
0.0063547366 0.080849491 0.24042086 0.047119141
0.0071279043 0.077731095 0.23114775 0.050292969
0.0081451116 0.07772094 0.23111753 0.057861328
0.0088870376 0.07537815 0.22415084 0.066650391
0.010076417 0.076919623 0.22873467 0.069580078
0.011193974 0.077682391 0.23100291 0.0625
0.012209165 0.077666856 0.2309567 0.051757812
0.013091485 0.076873481 0.22859746 0.045654297
0.013952837 0.076079123 0.22623529 0.044433594
0.01570824 0.079940572 0.23771803 0.044433594
0.016588315 0.079143144 0.23534673 0.047851562
0.017965531 0.080671869 0.23989268 0.054931641
0.01892513 0.080259673 0.23866692 0.059570312
0.019970119 0.080233924 0.23859036 0.052490234
0.021826217 0.083306618 0.24772759 0.043701172
0.022589736 0.082115069 0.2441843 0.039794922
0.022763938 0.078987017 0.23488244 0.036865234
0.025422016 0.084374875 0.25090426 0.035400391
0.026151648 0.083179981 0.24735101 0.038330078
0.027103137 0.082758106 0.24609649 0.037841797
0.029228142 0.085814133 0.25518414 0.033935547
0.029655151 0.083843112 0.24932294 0.035888672
0.030313978 0.082644872 0.24575974 0.031494141
0.031821165 0.0837624 0.24908292 0.026123047
0.042629328 0.0856359 0.25465414 0.028076172
0.04470285 0.087498702 0.2601935 0.029296875
0.046823144 0.089357615 0.26572135 0.029052734
0.047754943 0.088913046 0.26439935 0.029296875
0.050360341 0.091531448 0.27218565 0.028076172
0.048504323 0.086107895 0.25605771 0.028808594
0.05025718 0.087191962 0.25928137 0.03125
0.054289326 0.092094347 0.2738595 0.029541016
0.053612515 0.088969126 0.26456609 0.02734375
0.05708437 0.09271507 0.27570537 0.025634766
0.060649727 0.096453637 0.28682268 0.024414062
0.058195218 0.090661354 0.26959825 0.022949219
0.06257467 0.095534354 0.284089 0.022705078
0.061485723 0.092031211 0.27367175 0.022949219
0.063931711 0.093852095 0.2790865 0.020263672
-0.025155267 0.084588088 0.24827154 0.026855469
-0.025296725 0.088930301 0.26101622 0.029296875
-0.023836592 0.087787569 0.25766221 0.029541016
-0.022810929 0.08821068 0.25890407 0.030029297
-0.022255756 0.090593472 0.26589772 0.030029297
-0.020086804 0.086307101 0.25331694 0.031005859
-0.019235387 0.087510489 0.25684899 0.032470703
-0.017946649 0.08675041 0.25461808 0.033691406
-0.016753351 0.086381063 0.25353405 0.033447266
-0.015782572 0.087188229 0.25590312 0.034667969
-0.014658677 0.087208644 0.25596303 0.034667969
-0.013473056 0.086834639 0.25486532 0.03515625
-0.012240975 0.08606597 0.25260919 0.036376953
-0.010825249 0.08372324 0.24573316 0.037109375
-0.010018821 0.086095855 0.25269693 0.036865234
-0.0086629074 0.083749421 0.24580999 0.038330078
-0.0074386653 0.082187369 0.24122527 0.037841797
-0.0064072297 0.082589939 0.24240685 0.038574219
-0.0052381563 0.081024542 0.2378123 0.038818359
-0.0042722281 0.082604289 0.24244894 0.040527344
-0.0032348842 0.08339607 0.2447729 0.041259766
-0.0021159907 0.081826113 0.24016497 0.042480469
-0.001073283 0.083008468 0.24363525 0.042480469
0 0.083796002 0.24594671 0.043457031
0.0010427631 0.080648035 0.23670723 0.044189453
0.0020956448 0.081039324 0.23785569 0.044921875
0.0031280718 0.080642425 0.23669076 0.044433594
0.0042111962 0.081424221 0.23898539 0.045654297
0.0050855884 0.078664601 0.23088573 0.047119141
0.0063156979 0.08141008 0.23894389 0.046875
0.007189523 0.079434678 0.23314595 0.050537109
0.0080121728 0.077458389 0.22734541 0.058105469
0.0091038598 0.07823322 0.22961959 0.065429688
0.010012086 0.077434175 0.22727434 0.068359375
0.011011289 0.077420078 0.22723295 0.062011719
0.012436667 0.080155052 0.23526029 0.051269531
0.013470137 0.080137677 0.23520929 0.045166016
0.014573998 0.080511659 0.23630697 0.044433594
0.015839532 0.081669368 0.23970492 0.045166016
0.016809756 0.0812549 0.23848841 0.051025391
0.017423984 0.079269595 0.23266141 0.057861328
0.018352035 0.078853309 0.23143956 0.059326172
0.020521542 0.083534241 0.24517842 0.052001953
0.021999875 0.085074298 0.24969859 0.043701172
0.022559632 0.083084665 0.24385889 0.044189453
0.023736574 0.083445609 0.24491829 0.041015625
0.024805889 0.083413251 0.24482332 0.038818359
0.02611688 0.084162414 0.24702215 0.039794922
0.02757306 0.085300796 0.25036341 0.039794922
0.029715281 0.088392332 0.25943726 0.034667969
0.028251044 0.080924287 0.23751804 0.034912109
0.031405546 0.0867474 0.25460926 0.031982422
0.030900368 0.082408838 0.24187531 0.028564453
0.038689412 0.080872074 0.2373648 0.024169922
0.043146219 0.087814718 0.2577419 0.029785156
0.045623418 0.090475582 0.26555169 0.029785156
0.047364049 0.091579236 0.26879099 0.029296875
0.046870347 0.088414297 0.2595017 0.030761719
0.049452972 0.091064945 0.26728153 0.030273438
0.050809458 0.091386959 0.26822665 0.031005859
0.051292598 0.090159215 0.26462317 0.030761719
0.054218899 0.093185067 0.27350423 0.029296875
0.054462261 0.09156847 0.26875943 0.026855469
0.056072108 0.092269279 0.27081636 0.024902344
0.059613761 0.096053548 0.28192341 0.023925781
0.057875998 0.091350414 0.26811942 0.022460938
0.061996181 0.095896564 0.28146267 0.020507812
0.062929206 0.095431164 0.28009668 0.022949219
0.062557213 0.093042672 0.27308628 0.019775391
-0.025354058 0.086363778 0.25023353 0.026123047
-0.025262693 0.08996404 0.26066503 0.028564453
-0.024123307 0.089997314 0.26076147 0.030029297
-0.023083933 0.090425685 0.26200262 0.030273438
-0.021456027 0.088472381 0.25634307 0.030517578
-0.020424426 0.088897467 0.25757474 0.030761719
-0.019467842 0.089718275 0.25995296 0.03125
-0.018165698 0.088949628 0.25772583 0.033691406
-0.016730709 0.087384634 0.25319138 0.033203125
-0.015761232 0.088201128 0.25555712 0.034179688
-0.014309142 0.086234741 0.24985963 0.033691406
-0.013454822 0.087843314 0.25452039 0.035400391
-0.012001127 0.085475437 0.24765961 0.036132812
-0.01111511 0.087081484 0.25231302 0.037109375
-0.0098681878 0.085902721 0.24889763 0.037353516
-0.0086105512 0.084324345 0.2443244 0.037841797
-0.0075707543 0.084733099 0.24550875 0.038818359
-0.0064594806 0.084344812 0.24438368 0.038330078
-0.0054341997 0.085148618 0.24671267 0.038574219
-0.0041851681 0.081971899 0.23750833 0.040527344
-0.0031695431 0.082772754 0.23982875 0.040527344
-0.0021334386 0.083572268 0.2421453 0.041748047
-0.0010870661 0.085166343 0.24676402 0.042480469
0 0.082381241 0.23869437 0.042236328
0.0010464281 0.081982553 0.2375392 0.043945312
0.0021029608 0.08237838 0.23868607 0.044677734
0.0030476376 0.079589188 0.23060457 0.044189453
0.0042258007 0.08276774 0.23981422 0.045166016
0.0050279046 0.078782365 0.22826687 0.046386719
0.006002442 0.078377016 0.22709239 0.047607422
0.0072508636 0.081152834 0.23513514 0.050292969
0.0079200817 0.077562489 0.22473234 0.057128906
0.0092285834 0.080334954 0.23276539 0.065673828
0.0097955083 0.076743044 0.22235805 0.068359375
0.010996382 0.078319356 0.22692531 0.061279297
0.012419836 0.081086136 0.23494188 0.05078125
0.012990328 0.078286842 0.22683111 0.045166016
0.014341301 0.080255076 0.23253396 0.043945312
0.01551393 0.081029385 0.23477747 0.046630859
0.01630047 0.079816408 0.23126292 0.052246094
0.017572742 0.080984637 0.2346478 0.060302734
0.018600816 0.080960192 0.23457697 0.057861328
0.019435504 0.080140904 0.23220313 0.050292969
0.020350309 0.079717383 0.23097602 0.043945312
0.022104176 0.082464494 0.2389356 0.045410156
0.023593351 0.084019281 0.24344048 0.044433594
0.025237754 0.085967615 0.24908565 0.043457031
0.025717864 0.083952889 0.24324813 0.041503906
0.026399245 0.082730092 0.23970515 0.040283203
0.029018899 0.087441906 0.25335732 0.034423828
0.029985035 0.087006725 0.25209641 0.035400391
0.030515848 0.085384578 0.24739634 0.032470703
0.032175306 0.086923406 0.25185499 0.030029297
0.031302191 0.081745811 0.23685324 0.020996094
0.040510759 0.088161692 0.25544286 0.020507812
0.040309984 0.085353814 0.24730721 0.030517578
0.04461439 0.091982104 0.26651227 0.031005859
0.044976462 0.090350941 0.26178607 0.031982422
0.045096792 0.088327862 0.25592431 0.031005859
0.048450969 0.092582867 0.26825294 0.031005859
0.049387861 0.092126153 0.26692966 0.031005859
0.049667604 0.090493366 0.26219875 0.030517578
0.053423773 0.095124826 0.27561808 0.027099609
0.054372519 0.094662711 0.27427915 0.026123047
0.053243507 0.09068194 0.26274511 0.026123047
0.056467447 0.094126582 0.27272576 0.024902344
0.058818687 0.096003279 0.27816337 0.023193359
0.059995577 0.095925741 0.27793869 0.020507812
0.063407503 0.099353381 0.28787005 0.016601562
0.06082017 0.093430668 0.2707094 0.021728516
0.062476143 0.094128869 0.27273238 0.020996094
-0.02462275 0.084948011 0.24301584 0.026367188
-0.026562015 0.095803812 0.27407169 0.027832031
-0.023029242 0.087017141 0.24893513 0.029052734
-0.022749187 0.0902569 0.2582033 0.029785156
-0.02200331 0.091892257 0.26288164 0.030273438
-0.019850254 0.087506056 0.25033379 0.030761719
-0.019699363 0.091949157 0.26304445 0.031494141
-0.018383872 0.09117201 0.26082119 0.033447266
-0.016631922 0.087982379 0.25169641 0.032958984
-0.015597904 0.088406198 0.25290886 0.033935547
-0.014552993 0.088828728 0.25411761 0.033935547
-0.013375628 0.088445842 0.25302228 0.034667969
-0.012207683 0.088061295 0.25192219 0.036376953
-0.010897166 0.086468533 0.24736568 0.036376953
-0.010037176 0.088493951 0.25315991 0.037597656
-0.0089232447 0.088506944 0.25319707 0.037597656
-0.0075958823 0.086104266 0.2463236 0.038574219
-0.0065114885 0.086113945 0.2463513 0.037841797
-0.0053506792 0.084914811 0.24292085 0.0390625
-0.0044228961 0.087738715 0.25099936 0.040283203
-0.0031804175 0.08412157 0.24065158 0.040039062
-0.002089934 0.082917668 0.23720752 0.041748047
-0.0010754308 0.085334957 0.24412279 0.042236328
0 0.084933169 0.24297336 0.04296875
0.0010500667 0.083322331 0.23836516 0.043457031
0.002160951 0.085735254 0.24526794 0.043945312
0.0031043307 0.082109086 0.23489437 0.043457031
0.0041388567 0.082104117 0.23488013 0.045410156
0.0050717341 0.080487974 0.23025674 0.046142578
0.006176786 0.081687532 0.23368838 0.046875
0.007027966 0.07966657 0.22790688 0.049804688
0.0081120413 0.080460861 0.23017918 0.056396484
0.008942212 0.078840062 0.22554246 0.063964844
0.0096807387 0.076816231 0.21975277 0.069580078
0.011092827 0.080019169 0.22891559 0.062011719
0.012038065 0.079601258 0.22772007 0.05078125
0.013696933 0.083603501 0.23916952 0.045898438
0.014676209 0.083182186 0.23796424 0.044189453
0.01549275 0.081956193 0.23445694 0.046630859
0.016440202 0.081532679 0.23324539 0.052490234
0.017634802 0.082312569 0.23547646 0.058105469
0.018211242 0.080280781 0.22966401 0.055419922
0.020273793 0.084669285 0.24221846 0.046875
0.021030361 0.083437495 0.23869461 0.043212891
0.022710865 0.085814141 0.24549362 0.043945312
0.023561284 0.084980793 0.24310961 0.046386719
0.024738893 0.085348703 0.24416213 0.045166016
0.026409844 0.08731705 0.2497931 0.043212891
0.026489589 0.084077485 0.24052547 0.040527344
0.028979588 0.088442981 0.25301409 0.034667969
0.029808335 0.087602906 0.25061083 0.03515625
0.031038933 0.087961622 0.25163704 0.033447266
0.032716058 0.089517407 0.25608775 0.031738281
0.03231705 0.08547812 0.24453235 0.027832031
0.033532921 0.085832976 0.24554752 0.018798828
0.03935631 0.089225881 0.25525379 0.021484375
0.039011579 0.085987546 0.2459897 0.029785156
0.043409713 0.09309572 0.26632446 0.033447266
0.042079475 0.087868094 0.25136948 0.033203125
0.044721112 0.090989746 0.26029977 0.032958984
0.048839744 0.096885309 0.27716556 0.031005859
0.046541199 0.090073749 0.25767934 0.031738281
0.049532074 0.093579717 0.26770905 0.030273438
0.050889995 0.093909264 0.26865181 0.028320312
0.055328965 0.099780202 0.28544715 0.020751953
0.054749284 0.096540697 0.27617973 0.022705078
0.056152634 0.096862756 0.27710104 0.024169922
0.057328891 0.096787699 0.27688631 0.025146484
0.059457526 0.098290175 0.28118455 0.022216797
0.05991663 0.097027719 0.27757296 0.018310547
0.063524351 0.098835856 0.28274563 0.018554688
0.061363023 0.093637094 0.2678732 0.020996094
-0.025632849 0.089552239 0.25298506 0.025634766
-0.02497175 0.09120816 0.25766304 0.028076172
-0.024481321 0.093674831 0.26463142 0.029296875
-0.022919856 0.092085086 0.26014036 0.029296875
-0.02187709 0.092521645 0.26137364 0.030029297
-0.020095723 0.08970952 0.25342941 0.030517578
-0.019156802 0.090548545 0.25579965 0.031738281
-0.017064543 0.085700251 0.24210322 0.032958984
-0.016760672 0.089785777 0.25364482 0.033691406
-0.015788794 0.090620898 0.25600404 0.034179688
-0.014467146 0.089422524 0.25261864 0.033935547
-0.013417875 0.08984831 0.25382146 0.034912109
-0.012135155 0.088646188 0.25042549 0.035400391
-0.011033954 0.088662222 0.25047076 0.035888672
-0.0098866215 0.088269942 0.24936259 0.036621094
-0.0087488908 0.087876037 0.2482498 0.036865234
-0.0077626063 0.08910805 0.25173023 0.037597656
-0.0065936367 0.088304162 0.24945925 0.038330078
-0.0053432765 0.085870713 0.24258476 0.038330078
-0.0042952131 0.086284384 0.24375337 0.039550781
-0.0032216047 0.086289592 0.2437681 0.039550781
-0.0020566476 0.082629912 0.23342951 0.041259766
-0.0010536792 0.084667325 0.23918518 0.040283203
0 0.083853938 0.23688738 0.042480469
0.0010334161 0.083039105 0.23458548 0.042724609
0.0020262536 0.081408784 0.22997981 0.043212891
0.0031000348 0.083033383 0.2345693 0.044433594
0.0041331295 0.083028369 0.23455513 0.045410156
0.0051406883 0.082614951 0.23338725 0.046142578
0.0062897825 0.084234841 0.23796342 0.045410156
0.0072309212 0.083004758 0.23448844 0.049804688
0.0082223378 0.082587205 0.23330885 0.057617188
0.0089298515 0.079727687 0.22523072 0.064208984
0.0098192068 0.078901246 0.22289601 0.067138672
0.011021839 0.080513507 0.22745067 0.061767578
0.012750017 0.085376218 0.24118781 0.050292969
0.01354651 0.083732009 0.23654291 0.045654297
0.014655965 0.084118947 0.23763601 0.043212891
0.015850591 0.084910534 0.23987226 0.045166016
0.016821921 0.084481761 0.23866099 0.051513672
0.017438704 0.082427606 0.23285799 0.056884766
0.018549897 0.082808785 0.23393482 0.052734375
0.020245904 0.085623108 0.24188527 0.043701172
0.021708233 0.087217145 0.24638845 0.039550781
0.021831827 0.083536871 0.23599167 0.040283203
0.023417953 0.085532986 0.24163069 0.041992188
0.024936933 0.08712095 0.2461167 0.042724609
0.024437964 0.081820324 0.23114242 0.043457031
0.027587028 0.088669106 0.25049022 0.037109375
0.028547088 0.088225856 0.24923803 0.034667969
0.030311294 0.090208635 0.25483939 0.035644531
0.030573864 0.087740414 0.24786666 0.033447266
0.032379705 0.089718565 0.25345495 0.032226562
0.033328664 0.08926969 0.25218689 0.030517578
0.034110285 0.088416032 0.24977531 0.027832031
0.034709733 0.087158293 0.24622217 0.024658203
0.037265327 0.090739921 0.2563403 0.023681641
0.038543373 0.091091566 0.2573337 0.02734375
0.0382502 0.087815888 0.24807988 0.031982422
0.04076241 0.09098395 0.25702965 0.032958984
0.042609978 0.092537336 0.26141796 0.033691406
0.043543827 0.092076838 0.26011705 0.033447266
0.043880694 0.090409957 0.25540814 0.031494141
0.046175346 0.092759326 0.26204512 0.030517578
0.048321359 0.094702773 0.26753533 0.031494141
0.048836734 0.093433954 0.26395091 0.030029297
0.049535107 0.092566118 0.26149929 0.026367188
0.057447504 0.10491217 0.29637688 0.016845703
0.05333158 0.09523122 0.26902819 0.021240234
0.059739862 0.10435513 0.29480323 0.021240234
0.056785084 0.097083136 0.27425987 0.023925781
0.057947569 0.097006619 0.27404371 0.021484375
0.062512644 0.10251306 0.28959939 0.017089844
0.054312151 0.087283954 0.24657716 0.020263672
0.060407199 0.095175661 0.26887125 0.020507812
0.059994448 0.092707545 0.26189882 0.021484375
-0.025134044 0.088907212 0.24806209 0.025878906
-0.025047973 0.09263014 0.25844952 0.029052734
-0.023389036 0.090614028 0.25282434 0.028564453
-0.022383897 0.091055907 0.25405723 0.028564453
-0.021271788 0.091086246 0.25414187 0.029785156
-0.020340204 0.091935933 0.25651258 0.029785156
-0.019559087 0.093605652 0.26117134 0.030517578
-0.017848419 0.090757437 0.25322446 0.032714844
-0.016813068 0.091192298 0.25443777 0.032470703
-0.016261723 0.094501987 0.2636722 0.033935547
-0.014446986 0.090414129 0.25226659 0.034912109
-0.013277909 0.09002246 0.25117376 0.034667969
-0.012062642 0.089217931 0.24892904 0.034912109
-0.011018559 0.089645244 0.2501213 0.036132812
-0.0096908351 0.087603442 0.24442442 0.035400391
-0.0086557809 0.088027574 0.24560779 0.036132812
-0.0076101813 0.08845032 0.24678731 0.037109375
-0.0063720252 0.086402968 0.24107495 0.037597656
-0.005386387 0.087645583 0.24454199 0.038574219
-0.0043296758 0.088063881 0.24570912 0.0390625
-0.0031108775 0.084365346 0.23538972 0.040039062
-0.002104359 0.085603647 0.23884474 0.041015625
-0.0010218545 0.083136447 0.23196095 0.041259766
0 0.08437188 0.23540796 0.041992188
0.001011737 0.082313322 0.22966431 0.043701172
0.0020841248 0.084780537 0.23654817 0.043457031
0.0031108775 0.084365346 0.23538972 0.044189453
0.004208283 0.085594803 0.23882008 0.044921875
0.0051082172 0.083119288 0.23191307 0.045410156
0.0063113398 0.085580088 0.23877901 0.045898438
0.0072562192 0.084336348 0.23530883 0.049316406
0.0081299627 0.082680106 0.23068769 0.056640625
0.0093268603 0.084313177 0.23524415 0.063964844
0.010007682 0.081420906 0.22717439 0.067382812
0.010839701 0.0801728 0.223692 0.060302734
0.011944056 0.080979116 0.22594172 0.049804688
0.013461964 0.084249526 0.23506659 0.045410156
0.014282034 0.082997389 0.23157297 0.042236328
0.015752785 0.085441433 0.23839216 0.044677734
0.016798511 0.085418761 0.23832889 0.05078125
0.017929165 0.085805185 0.23940708 0.056152344
0.018342504 0.082906507 0.23131938 0.050537109
0.020026144 0.085752375 0.23925972 0.041748047
0.021879755 0.089005105 0.24833523 0.034667969
0.023071537 0.089383975 0.24939233 0.036132812
0.023163835 0.085662387 0.23900865 0.036621094
0.025018217 0.088497497 0.24691893 0.040039062
0.026095519 0.088462077 0.24682012 0.040771484
0.026919913 0.087606445 0.24443281 0.035400391
0.02903072 0.090842046 0.25346053 0.035400391
0.029726503 0.089574113 0.24992283 0.034667969
0.032220088 0.093620539 0.26121286 0.033203125
0.031315528 0.087854534 0.245125 0.032470703
0.032981589 0.089444324 0.2495607 0.031982422
0.033596762 0.088173516 0.246015 0.031738281
0.036427263 0.092614494 0.25840589 0.030761719
0.037544992 0.092563659 0.25826403 0.031982422
0.038320243 0.091696292 0.25584397 0.032958984
0.038548283 0.089606479 0.25001314 0.033691406
0.041247036 0.093216479 0.26008549 0.032470703
0.041811757 0.091938868 0.25652078 0.032958984
0.042345114 0.090661339 0.25295633 0.032958984
0.045768522 0.095478304 0.26639625 0.031738281
0.045912929 0.093385071 0.26055586 0.030029297
0.046415463 0.092104591 0.25698316 0.030273438
0.048979808 0.094879024 0.26472417 0.030273438
0.048825573 0.09238071 0.25775358 0.026367188
0.056274962 0.10405548 0.29032764 0.016601562
0.053930882 0.09750513 0.27205133 0.023193359
0.056687776 0.10026145 0.27974182 0.024414062
0.055775154 0.09654846 0.26938212 0.023681641
0.057393376 0.097279862 0.27142283 0.021484375
0.062164765 0.10115252 0.28222805 0.016601562
0.058811925 0.093820482 0.26177073 0.021484375
0.061714325 0.096557289 0.26940674 0.019042969
-0.024751911 0.088636413 0.24429059 0.025878906
-0.025344951 0.094885536 0.2615138 0.028808594
-0.024096072 0.09450575 0.26046705 0.029296875
-0.022654591 0.093294814 0.25712961 0.029296875
-0.021816066 0.094570152 0.26064456 0.029785156
-0.019948954 0.091280699 0.25157851 0.030029297
-0.019188967 0.092968099 0.25622913 0.03125
-0.018307235 0.094239734 0.25973392 0.032470703
-0.017167579 0.094264701 0.2598027 0.033203125
-0.015674025 0.092211217 0.25414312 0.033447266
-0.014164357 0.089739732 0.24733144 0.033203125
-0.013501396 0.092667773 0.25540143 0.034423828
-0.012156676 0.091023467 0.25086957 0.035400391
-0.010902091 0.089792714 0.24747747 0.036376953
-0.0099497773 0.091054648 0.25095549 0.035644531
-0.0087647513 0.090236232 0.24869984 0.035888672
-0.0074580666 0.087752499 0.24185443 0.037109375
-0.0063933413 0.087762281 0.2418814 0.037597656
-0.0053787907 0.088602491 0.24419712 0.038330078
-0.0044043828 0.090689369 0.24994873 0.038818359
-0.0031822564 0.087366544 0.24079072 0.0390625
-0.0021620065 0.08903449 0.24538775 0.040771484
-0.0010507219 0.086540423 0.23851386 0.040283203
0 0.087373294 0.24080932 0.041503906
0.00099515484 0.08196377 0.22590014 0.042724609
0.002071081 0.085290052 0.2350677 0.043457031
0.0031367955 0.086118452 0.23735085 0.043945312
0.0041821427 0.086113289 0.23733662 0.045166016
0.0051262658 0.084442757 0.23273247 0.045410156
0.0062115402 0.085266672 0.23500326 0.045898438
0.0071752965 0.08442539 0.23268461 0.049316406
0.0079973312 0.08233536 0.22692429 0.057128906
0.0088593913 0.081076063 0.22345354 0.064941406
0.0096907485 0.079815745 0.21997999 0.068115234
0.010935458 0.081879564 0.22566807 0.059570312
0.011987788 0.082279012 0.22676897 0.050537109
0.013574176 0.086000577 0.23702598 0.044677734
0.014614969 0.085980728 0.23697127 0.042724609
0.016033158 0.088035755 0.24263512 0.043701172
0.016532965 0.085106365 0.23456144 0.048339844
0.017561331 0.085082404 0.2344954 0.051757812
0.019042183 0.087131575 0.24014311 0.048095703
0.020572167 0.089178003 0.24578327 0.040039062
0.021547034 0.08873374 0.24455884 0.032470703
0.022088068 0.086630277 0.2387615 0.033691406
0.024348861 0.091156408 0.25123596 0.037353516
0.025098899 0.089878976 0.24771522 0.040039062
0.025817771 0.08860103 0.24419308 0.038085938
0.027761661 0.091461159 0.25207588 0.034912109
0.027031429 0.085630193 0.23600517 0.035644531
0.029007332 0.08848615 0.24387647 0.034423828
0.030489193 0.089684866 0.24718022 0.032958984
0.031853773 0.090467826 0.24933815 0.032470703
0.032634977 0.089596972 0.24693799 0.033447266
0.034326751 0.091201559 0.25136039 0.034179688
0.035094745 0.090328209 0.24895336 0.034667969
0.037162654 0.092752166 0.25563401 0.033691406
0.038777452 0.093935907 0.25889653 0.033935547
0.038844962 0.09141089 0.25193733 0.032470703
0.040650494 0.093002506 0.25632396 0.031982422
0.041938867 0.093356855 0.25730062 0.031494141
0.043234941 0.093709268 0.25827187 0.029296875
0.045705587 0.096524134 0.26602995 0.026855469
0.047245298 0.097281419 0.26811707 0.030517578
0.049618885 0.099676877 0.27471921 0.030029297
0.049539804 0.097148538 0.26775086 0.028564453
0.049614217 0.095031798 0.26191691 0.026611328
0.054886092 0.10274031 0.28316233 0.018554688
0.054974709 0.10061941 0.27731687 0.022460938
0.05432789 0.097273894 0.26809633 0.025634766
0.055932373 0.098015934 0.27014148 0.023193359
0.05826677 0.099979505 0.27555326 0.020996094
0.060646042 0.10193837 0.28095207 0.016113281
0.058480412 0.094443373 0.26029515 0.022216797
-0.026449472 0.095870435 0.2610448 0.025878906
-0.025088109 0.095069401 0.25886366 0.028564453
-0.023534333 0.093428232 0.25439495 0.029052734
-0.022924172 0.095556282 0.26018938 0.029296875
-0.022071831 0.096845686 0.26370031 0.029785156
-0.019649053 0.091004871 0.2477964 0.031005859
-0.019503944 0.095646486 0.26043501 0.031494141
-0.018120205 0.094414487 0.25708044 0.032226562
-0.016614575 0.092340775 0.25143391 0.033203125
-0.015299257 0.091104075 0.24806651 0.033691406
-0.014144241 0.090705119 0.24698021 0.034179688
-0.013300838 0.092404529 0.25160751 0.034667969
-0.012361121 0.093682982 0.2550886 0.035400391
-0.01088659 0.090758517 0.2471256 0.035644531
-0.0098902574 0.09161374 0.24945429 0.035400391
-0.0087522827 0.091206737 0.24834605 0.035644531
-0.0076592294 0.091218412 0.24837784 0.037841797
-0.0065657822 0.091228545 0.24840543 0.037841797
-0.005194617 0.086612195 0.23583563 0.038574219
-0.0041156639 0.085777909 0.23356394 0.0390625
-0.0031928571 0.08872658 0.24159285 0.038818359
-0.0021286623 0.088730372 0.24160317 0.040527344
-0.0010492253 0.087471038 0.23817416 0.040527344
0 0.087471791 0.2381762 0.041015625
0.0010441809 0.087050505 0.23702909 0.042480469
0.0020782202 0.086627759 0.23587799 0.041992188
0.0031928571 0.08872658 0.24159285 0.043701172
0.0041358387 0.08619839 0.23470886 0.044677734
0.005194617 0.086612195 0.23583563 0.045410156
0.006232955 0.086604059 0.23581345 0.045166016
0.0071297893 0.084912993 0.23120888 0.049072266
0.0079052877 0.08238028 0.22431256 0.056884766
0.0091643669 0.084889792 0.23114571 0.065429688
0.0096265692 0.080254063 0.21852311 0.067382812
0.010919916 0.082760304 0.22534734 0.059814453
0.012514879 0.08694426 0.2367398 0.048828125
0.013489416 0.086505815 0.23554595 0.043212891
0.014171201 0.084386729 0.22977591 0.041748047
0.015708325 0.087304004 0.23771933 0.042480469
0.016670588 0.086861327 0.23651399 0.046875
0.018220788 0.089353956 0.24330112 0.048828125
0.018743567 0.086811095 0.23637721 0.044921875
0.019587556 0.085945308 0.23401976 0.040039062
0.021516548 0.089688793 0.24421284 0.033447266
0.023428798 0.093009271 0.25325415 0.033935547
0.023761865 0.090043709 0.24517924 0.036376953
0.024716973 0.089590706 0.24394579 0.037353516
0.026745148 0.092902899 0.2529645 0.03515625
0.027346214 0.091191158 0.24830362 0.036132812
0.028297398 0.090733707 0.24705805 0.036132812
0.030184748 0.093200728 0.25377548 0.034912109
0.030586649 0.091068752 0.24797031 0.034912109
0.030937564 0.088937245 0.24216646 0.035400391
0.033790641 0.093901113 0.25568253 0.034423828
0.03427865 0.092184417 0.25100818 0.034912109
0.036965929 0.096304633 0.26222709 0.033935547
0.037110694 0.093752019 0.25527659 0.033447266
0.037704255 0.092450008 0.25173134 0.032714844
0.037917111 0.090315588 0.24591954 0.030273438
0.040234614 0.093173601 0.2537016 0.028320312
0.043171972 0.097273752 0.26486588 0.024902344
0.045636572 0.10012094 0.27261847 0.020996094
0.04816702 0.10296288 0.28035676 0.020019531
0.047179803 0.098331273 0.26774538 0.030517578
0.046491541 0.094533466 0.25740439 0.030029297
0.048845097 0.096954331 0.26399612 0.029541016
0.049118601 0.095229834 0.2593005 0.027832031
0.050661433 0.095988736 0.26136693 0.024414062
0.054006368 0.10005251 0.27243215 0.025634766
0.05562095 0.10080361 0.2744773 0.026123047
0.057484735 0.10196478 0.27763903 0.023681641
0.060324404 0.1047725 0.28528416 0.021728516
0.059836313 0.10180387 0.27720091 0.020263672
0.058290932 0.097191103 0.26464084 0.019775391
0.059911028 0.09793368 0.26666281 0.01953125
-0.026181122 0.096041098 0.25839627 0.025390625
-0.024831614 0.095231138 0.25621709 0.028076172
-0.023711525 0.095265776 0.25631028 0.028564453
-0.022791047 0.096145958 0.25867841 0.029785156
-0.021372413 0.094906658 0.25534409 0.029541016
-0.019620961 0.091969647 0.24744214 0.030029297
-0.018963518 0.094116703 0.25321874 0.031005859
-0.017611759 0.092870854 0.24986683 0.031494141
-0.017118672 0.096288741 0.25906256 0.032226562
-0.015910963 0.09588819 0.25798488 0.032958984
-0.014254745 0.092515141 0.24890979 0.033447266
-0.01334214 0.093808234 0.25238881 0.033935547
-0.011900578 0.091279253 0.24558464 0.03515625
-0.010971626 0.092569463 0.24905592 0.034912109
-0.0097854529 0.09173502 0.24681088 0.034667969
-0.0088202665 0.0930226 0.25027508 0.035400391
-0.0075777383 0.091335222 0.24573523 0.036865234
-0.0065563507 0.092195056 0.2480486 0.037597656
-0.0052626943 0.088804483 0.23892634 0.037353516
-0.0043112077 0.090935968 0.24466105 0.038330078
-0.003188268 0.089666508 0.24124561 0.039550781
-0.0021054547 0.08882039 0.23896913 0.040283203
-0.0010527543 0.088822655 0.23897524 0.040283203
0 0.089248404 0.24012069 0.040283203
0.0010275688 0.086697713 0.23325813 0.041992188
0.0020953808 0.088395409 0.23782574 0.042724609
0.0031127168 0.087541714 0.2355289 0.043457031
0.0041298955 0.087111555 0.23437157 0.045166016
0.0050864317 0.085830167 0.23092401 0.045898438
0.0063146423 0.088796161 0.23890395 0.045410156
0.007049059 0.084962994 0.22859091 0.048339844
0.0080147628 0.084527388 0.2274189 0.056640625
0.0090606054 0.084939837 0.22852862 0.064453125
0.0098140696 0.082802959 0.22277938 0.06640625
0.010904251 0.083637267 0.22502406 0.059570312
0.012195078 0.085743271 0.23069023 0.049560547
0.013470081 0.087422565 0.23520833 0.04296875
0.014291706 0.086129658 0.23172981 0.041503906
0.015157944 0.085260071 0.2293902 0.041992188
0.016566314 0.087357983 0.23503457 0.043945312
0.017767619 0.088181414 0.23725 0.044921875
0.019349704 0.090698175 0.24402128 0.042724609
0.019750398 0.087703913 0.23596528 0.0390625
0.021285031 0.089792699 0.24158511 0.033447266
0.02244691 0.090184934 0.24264041 0.032958984
0.02350726 0.090152144 0.24255218 0.034179688
0.025027767 0.091810212 0.24701317 0.033935547
0.025263449 0.08881332 0.23895013 0.036865234
0.027182057 0.091735832 0.24681307 0.038574219
0.028387403 0.092118956 0.24784386 0.037597656
0.029871562 0.093344964 0.25114241 0.036865234
0.031243792 0.09414611 0.25329787 0.036376953
0.032634214 0.094944946 0.25544712 0.035644531
0.031943191 0.089836694 0.24170348 0.034423828
0.03376551 0.091898479 0.24725068 0.034179688
0.035795107 0.094377927 0.25392157 0.033935547
0.037223026 0.095168777 0.25604931 0.03125
0.038329508 0.095115453 0.25590584 0.029785156
0.040306542 0.097163729 0.2614167 0.024414062
0.040536761 0.095004305 0.2556068 0.021240234
0.043295566 0.098727569 0.26562417 0.017822266
0.048030823 0.10664319 0.28692096 0.016357422
0.047129788 0.10195948 0.27431953 0.021484375
0.046517409 0.098118812 0.26398632 0.03125
0.047444705 0.097633891 0.26268166 0.031005859
0.049193837 0.098823026 0.26588097 0.029541016
0.048836894 0.095824435 0.25781336 0.028076172
0.050590936 0.097010054 0.26100323 0.026611328
0.05526847 0.10362431 0.27879873 0.025634766
0.054633234 0.10020646 0.2696031 0.024658203
0.054848611 0.098461054 0.26490712 0.021972656
0.058343612 0.10255309 0.27591667 0.021484375
0.057334509 0.098722629 0.2656109 0.020996094
0.06265036 0.10571833 0.28443265 0.019287109
-0.02545247 0.094479695 0.25120482 0.024414062
-0.025126504 0.097509228 0.25925982 0.027587891
-0.024729721 0.1005394 0.26731652 0.028076172
-0.022958726 0.09800633 0.26058155 0.028564453
-0.021341601 0.095898047 0.25497597 0.029541016
-0.020405261 0.096784547 0.25733301 0.030029297
-0.019362638 0.097241573 0.25854817 0.030273438
-0.018790867 0.1002682 0.26659545 0.032714844
-0.016642116 0.094722614 0.25185069 0.032958984
-0.015114653 0.092173591 0.2450733 0.032958984
-0.014364717 0.094338737 0.25083005 0.033691406
-0.013383118 0.095216542 0.25316399 0.034179688
-0.012325523 0.095664106 0.25435397 0.034179688
-0.010804973 0.092248663 0.2452729 0.03515625
-0.0096355686 0.091405265 0.24303046 0.034423828
-0.0088074869 0.093993619 0.24991243 0.034667969
-0.0074259797 0.090571605 0.24081391 0.035888672
-0.0065468471 0.093157381 0.24768904 0.036865234
-0.0054562152 0.093166083 0.24771218 0.038085938
-0.0043250732 0.092314482 0.2454479 0.0390625
-0.003289263 0.093608156 0.24888757 0.038818359
-0.0021124603 0.090176821 0.23976426 0.040039062
-0.0010411675 0.088890843 0.23634505 0.040527344
0 0.091038749 0.24205595 0.040771484
0.0010461974 0.089320272 0.23748682 0.041259766
0.0020621635 0.088029757 0.23405559 0.042480469
0.0031082025 0.088455409 0.23518732 0.043945312
0.0041239066 0.088020779 0.23403171 0.045166016
0.0050790575 0.086726032 0.23058921 0.046386719
0.0060037905 0.085430041 0.22714339 0.045410156
0.0072852029 0.088854603 0.23624872 0.048828125
0.0082042348 0.087555699 0.23279515 0.056640625
0.009002245 0.085397407 0.22705662 0.063964844
0.010051138 0.08581271 0.22816083 0.067626953
0.011109552 0.086226396 0.22926076 0.060058594
0.012237716 0.087067388 0.23149681 0.049072266
0.01332001 0.087477744 0.23258787 0.043212891
0.014481947 0.088315167 0.23481442 0.040527344
0.015361954 0.087436251 0.23247756 0.040527344
0.016783297 0.089555793 0.23811305 0.041992188
0.018168466 0.091244288 0.24260245 0.041748047
0.019412085 0.092073798 0.24480797 0.039550781
0.020484125 0.092045002 0.2447314 0.037109375
0.02145488 0.091586702 0.24351288 0.032958984
0.022625064 0.091982864 0.24456619 0.032226562
0.024024466 0.09323252 0.2478888 0.034179688
0.023840096 0.088494547 0.23529138 0.037841797
0.02462652 0.087604843 0.23292582 0.039794922
0.027143046 0.092694707 0.24645886 0.040283203
0.028346701 0.093081959 0.2474885 0.038818359
0.030233683 0.095601268 0.2541869 0.037841797
0.031199073 0.095130555 0.25293535 0.036376953
0.031284045 0.092100352 0.24487858 0.035644531
0.033095591 0.094185755 0.25042331 0.031982422
0.033717323 0.092859797 0.2468978 0.030029297
0.036701512 0.097919762 0.26035139 0.029052734
0.037827898 0.097866632 0.2602101 0.024414062
0.038105626 0.095685586 0.2544111 0.024902344
0.043385584 0.10583121 0.28138649 0.018066406
0.042807691 0.10152095 0.26992628 0.019042969
0.044889979 0.10358194 0.27540609 0.017822266
0.044563882 0.10012345 0.26621059 0.020019531
0.045901094 0.10048351 0.26716793 0.025634766
0.047642797 0.10168891 0.27037287 0.031005859
0.047377806 0.098656893 0.26231125 0.029052734
0.050789807 0.10324372 0.27450681 0.029052734
0.05132376 0.10190286 0.2709417 0.027099609
0.052915234 0.10267492 0.27299449 0.025878906
0.054078251 0.1025998 0.27279475 0.023681641
0.054784056 0.10167934 0.27034742 0.021972656
0.056860697 0.10328819 0.27462506 0.020996094
0.057551675 0.10236537 0.27217147 0.020507812
0.057013039 0.099337786 0.26412165 0.018310547
-0.026105573 0.09804406 0.25765067 0.023925781
-0.02520008 0.09894529 0.260019 0.027587891
-0.0246938 0.10157447 0.26692823 0.028564453
-0.023125578 0.099879988 0.26247531 0.028320312
-0.02121543 0.096452624 0.25346854 0.029052734
-0.020375563 0.097780675 0.25695851 0.030273438
-0.0188234 0.095645599 0.25134775 0.03125
-0.017640887 0.095239334 0.25028011 0.031738281
-0.016392274 0.09439823 0.24806975 0.032226562
-0.0155138 0.095720738 0.25154519 0.032714844
-0.014082961 0.093576439 0.24591015 0.033203125
-0.013002405 0.09359622 0.24596214 0.033447266
-0.01192119 0.093614429 0.24600999 0.034179688
-0.011341194 0.097965837 0.2574451 0.034667969
-0.0096214879 0.092345476 0.24267532 0.033935547
-0.0088347709 0.09539403 0.25068662 0.034912109
-0.0078016929 0.096273482 0.25299776 0.035888672
-0.0063866447 0.091946952 0.24162804 0.036865234
-0.0052975924 0.091521777 0.2405107 0.038085938
-0.0042584846 0.091962546 0.24166901 0.038574219
-0.0032241854 0.092835613 0.24396336 0.038574219
-0.0020792356 0.089802742 0.23599324 0.039306641
-0.0010496891 0.090672709 0.23827943 0.039550781
0 0.091107331 0.23942158 0.040283203
0.0010396441 0.089805022 0.23599923 0.041748047
0.0020892804 0.090236574 0.23713331 0.043457031
0.0030735226 0.088497505 0.2325632 0.043945312
0.0041781357 0.090227403 0.23710921 0.044921875
0.00514695 0.08891926 0.23367153 0.045654297
0.0060853874 0.087609828 0.23023048 0.045654297
0.0071691233 0.088467523 0.23248443 0.047851562
0.0079512941 0.085854627 0.22561797 0.055908203
0.009079433 0.087142915 0.22900349 0.064208984
0.0097855432 0.084528044 0.22213185 0.066650391
0.01114852 0.087546833 0.23006491 0.059326172
0.012340246 0.088829748 0.2334363 0.048339844
0.013300574 0.088377751 0.2322485 0.04296875
0.014882016 0.091822609 0.24130125 0.040039062
0.015640335 0.090068027 0.23669039 0.041015625
0.016999401 0.091776088 0.24117902 0.040527344
0.018397529 0.093481667 0.24566112 0.039306641
0.018842889 0.090425499 0.23762979 0.0390625
0.020739747 0.094290018 0.24778539 0.038085938
0.021023251 0.090799987 0.23861392 0.034667969
0.022697279 0.093362056 0.24534678 0.037353516
0.023109242 0.090735853 0.23844537 0.040283203
0.024265533 0.091133468 0.23949026 0.041015625
0.025190607 0.09066575 0.23826115 0.041503906
0.026729036 0.092354737 0.24269965 0.040283203
0.027007263 0.089726985 0.23579417 0.0390625
0.029650874 0.094861425 0.24928699 0.037841797
0.0305952 0.094386771 0.24803966 0.036865234
0.031094292 0.092618674 0.24339324 0.034667969
0.036337722 0.10462906 0.27495542 0.022949219
0.035058774 0.09769018 0.25672069 0.024169922
0.035852008 0.096778624 0.25432521 0.024169922
0.038430478 0.10059531 0.26435512 0.020019531
0.036867138 0.093664795 0.24614236 0.020507812
0.040365566 0.099622831 0.26179951 0.01953125
0.040421277 0.096989207 0.25487861 0.020263672
0.042437527 0.099075034 0.26035994 0.022216797
0.043368872 0.098584898 0.25907195 0.029052734
0.045062028 0.09980724 0.26228413 0.03125
0.045790866 0.098885983 0.25986317 0.030273438
0.047716491 0.10053112 0.26418644 0.029052734
0.049262624 0.10131742 0.26625276 0.02734375
0.049549665 0.09953782 0.26157612 0.025390625
0.053057715 0.10416259 0.27372956 0.023193359
0.052446153 0.10067393 0.26456171 0.021240234
0.056522664 0.10614039 0.27892706 0.020507812
0.05562171 0.10222623 0.26864102 0.018310547
-0.024574531 0.093367152 0.24253994 0.0234375
-0.024833536 0.098639883 0.25623691 0.027099609
-0.023503436 0.097802237 0.25406095 0.028076172
-0.022491889 0.098272644 0.25528294 0.027587891
-0.021184301 0.097431011 0.25309664 0.028320312
-0.020885801 0.10139471 0.26339316 0.029296875
-0.019646239 0.10098739 0.26233506 0.030761719
-0.017695028 0.096642464 0.25104824 0.031738281
-0.01704392 0.099292152 0.25793132 0.031982422
-0.01570126 0.098003857 0.25458473 0.032958984
-0.014322645 0.096275672 0.25009543 0.033203125
-0.013163582 0.095858254 0.2490111 0.033203125
-0.012234285 0.097190224 0.25247115 0.033691406
-0.010923614 0.095455959 0.24796605 0.03515625
-0.0097877244 0.095033318 0.24686816 0.03515625
-0.0090623377 0.098989002 0.25714383 0.034423828
-0.00757964 0.094620928 0.24579689 0.036621094
-0.0065577114 0.095507555 0.24810007 0.036621094
-0.005440196 0.095078267 0.24698491 0.037597656
-0.0043524881 0.095085502 0.2470037 0.038574219
-0.0032043827 0.093338281 0.24246496 0.038330078
-0.0021564052 0.094218686 0.24475199 0.039794922
-0.0010681998 0.093344599 0.24248137 0.039550781
0 0.092030659 0.23906812 0.039794922
0.00108826 0.095097549 0.24703501 0.041015625
0.0021263158 0.092904009 0.24133685 0.042480469
0.0030689863 0.089394413 0.23221998 0.043457031
0.0041117975 0.089827314 0.23334451 0.043212891
0.0050641457 0.088506036 0.22991222 0.045410156
0.0060463301 0.088059716 0.22875281 0.044677734
0.007158549 0.089364216 0.23214152 0.046875
0.008300459 0.090666912 0.23552553 0.055175781
0.0090209441 0.087588318 0.22752826 0.063476562
0.0098713394 0.086260661 0.22407942 0.064453125
0.010636113 0.084494211 0.21949069 0.057861328
0.012201861 0.088854916 0.23081852 0.047851562
0.013606513 0.091461897 0.23759066 0.041992188
0.014790026 0.092316128 0.23980969 0.039794922
0.015392086 0.089669123 0.23293357 0.0390625
0.016654143 0.090957612 0.23628068 0.040039062
0.01760507 0.090495192 0.23507947 0.039550781
0.01926535 0.093527876 0.24295747 0.039306641
0.019949341 0.091751173 0.23834212 0.040771484
0.02099243 0.091721132 0.23826408 0.040283203
0.021719692 0.090379737 0.23477954 0.042236328
0.023295177 0.092529446 0.24036385 0.042480469
0.025608039 0.097293809 0.25274023 0.041259766
0.025872461 0.094202667 0.24471036 0.040771484
0.026689995 0.093292169 0.24234517 0.039550781
0.027745765 0.093252398 0.24224186 0.0390625
0.029473063 0.095388971 0.24779204 0.038574219
0.03041113 0.094909839 0.24654737 0.036865234
0.031482283 0.094864748 0.24643028 0.032714844
0.038226061 0.11134609 0.28924385 0.017333984
0.034545191 0.097378388 0.25295994 0.020263672
0.033731546 0.092113435 0.23928317 0.026611328
0.039194755 0.10378885 0.2696124 0.019042969
0.039684556 0.1019951 0.26495278 0.021240234
0.04117588 0.10280436 0.267055 0.0234375
0.041434474 0.10057639 0.26126739 0.026855469
0.041642506 0.09834943 0.25548241 0.029296875
0.042929802 0.098721556 0.2564491 0.031494141
0.045190305 0.10125519 0.26303074 0.032714844
