# .PCD v0.7 - Point Cloud Data file format
VERSION 0.7
FIELDS x y z intensity
SIZE 4 4 4 4
TYPE F F F F
COUNT 1 1 1 1
WIDTH 997
HEIGHT 1
VIEWPOINT 0 0 0 1 0 0 0
POINTS 997
DATA ascii
0.020526977 -0.036895022 0.24524337 0.064453125
0.022128802 -0.037785422 0.25116193 0.063232422
0.022448363 -0.036505789 0.24265611 0.063964844
0.024787953 -0.038478162 0.2557666 0.063720703
0.025538879 -0.037920177 0.25205764 0.062744141
0.026510665 -0.037722956 0.2507467 0.062744141
0.027998792 -0.038246844 0.25422901 0.062011719
0.029242113 -0.038408887 0.25530612 0.060546875
0.030779229 -0.038930532 0.25877354 0.060058594
0.031164294 -0.038009804 0.25265339 0.058349609
0.031801444 -0.037449427 0.24892855 0.055664062
0.033986472 -0.038688436 0.2571643 0.053466797
0.03509938 -0.038666435 0.25701806 0.051269531
0.035873529 -0.038284279 0.25447783 0.047607422
0.038187265 -0.039518546 0.26268211 0.047607422
0.04057106 -0.040750582 0.27087149 0.044921875
0.040634405 -0.039648078 0.26354313 0.041015625
0.043279849 -0.041056279 0.2729035 0.038330078
0.045228485 -0.041745216 0.27748287 0.034423828
0.04422725 -0.039746847 0.26419961 0.035400391
0.048219353 -0.04222339 0.28066137 0.032470703
0.048791535 -0.041656315 0.27689198 0.039794922
0.047400292 -0.039481487 0.26243576 0.047851562
0.050934374 -0.041415032 0.27528816 0.048828125
0.052331045 -0.041561123 0.27625924 0.050048828
0.051668294 -0.040102158 0.26656139 0.049560547
0.055146225 -0.041850403 0.27818206 0.041503906
0.05334096 -0.03875782 0.25762549 0.025146484
0.061419662 -0.043698091 0.29046381 0.021484375
0.061268978 -0.041847251 0.27816117 0.036376953
0.062966391 -0.042163335 0.28026217 0.035644531
0.06521932 -0.042832088 0.2847074 0.033691406
0.066685051 -0.042968377 0.28561333 0.026855469
0.071229845 -0.04504687 0.29942918 0.021972656
0.069351435 -0.043061495 0.28623229 0.029296875
0.06909661 -0.042137142 0.28008804 0.032226562
0.070847355 -0.042446822 0.28214648 0.021728516
-0.026163569 -0.037705138 0.25822306 0.017089844
-0.026201114 -0.039475568 0.27034783 0.019775391
-0.025576292 -0.040369153 0.27646753 0.020751953
-0.024791576 -0.041087102 0.28138438 0.020996094
-0.023057226 -0.04022396 0.27547318 0.022460938
-0.021565057 -0.039710876 0.27195933 0.0234375
-0.020013137 -0.039020929 0.26723424 0.023193359
-0.01858715 -0.038505629 0.26370519 0.024169922
-0.017430563 -0.03851692 0.26378253 0.025146484
-0.016198687 -0.038351569 0.26265013 0.026123047
-0.015873674 -0.040473007 0.27717876 0.026611328
-0.013445373 -0.03713838 0.25434163 0.028320312
-0.012444461 -0.037498575 0.2568084 0.028320312
-0.011474769 -0.038034294 0.26047727 0.028564453
-0.010424795 -0.038393382 0.2629365 0.031494141
-0.0088428427 -0.036638126 0.25091565 0.031005859
-0.0077385888 -0.036643341 0.25095138 0.031494141
-0.0067295758 -0.037176441 0.25460228 0.032958984
-0.0057148892 -0.037885167 0.25945598 0.033935547
-0.0044872356 -0.037183497 0.25465062 0.034667969
-0.0032380428 -0.035776075 0.2450119 0.035400391
-0.0021481635 -0.035601534 0.24381655 0.035400391
-0.0011326035 -0.037541296 0.257101 0.036376953
0 -0.036307894 0.24865407 0.039794922
0.001084747 -0.035955045 0.24623759 0.046142578
0.002158798 -0.035777781 0.24502358 0.056152344
0.0031742391 -0.035071127 0.24018407 0.0703125
0.0042533041 -0.035245024 0.24137501 0.074462891
0.005316176 -0.035242014 0.24135439 0.072021484
0.0064106388 -0.035414524 0.24253583 0.06640625
0.0074409512 -0.035233982 0.24129941 0.063964844
0.0083326781 -0.034524389 0.23643975 0.061523438
0.0097074928 -0.035751637 0.24484454 0.061767578
0.010890406 -0.036097363 0.24721223 0.061523438
0.012152337 -0.036618326 0.25078005 0.059814453
0.013190484 -0.036434334 0.24951997 0.05859375
0.014286306 -0.036425706 0.24946088 0.061523438
0.014935486 -0.03536085 0.24216823 0.063232422
0.016316282 -0.036054652 0.24691972 0.065185547
0.017144313 -0.035516609 0.24323493 0.063964844
0.018120004 -0.035329763 0.24195534 0.066894531
0.019370385 -0.035669506 0.24428207 0.066162109
0.021043494 -0.036710951 0.25141439 0.063964844
0.022460746 -0.037224215 0.25492945 0.063232422
0.023352265 -0.03685879 0.25242686 0.063720703
0.02340633 -0.035264842 0.24151075 0.063476562
0.025798496 -0.037179019 0.25461993 0.062744141
0.026781349 -0.036987294 0.25330693 0.0625
0.028413013 -0.03767113 0.25799015 0.061767578
0.029123276 -0.037127715 0.25426859 0.062255859
0.030941306 -0.037984487 0.26013619 0.060791016
0.03192297 -0.037789974 0.25880405 0.058837891
0.032127514 -0.036720663 0.25148088 0.057861328
0.033533394 -0.037049949 0.25373602 0.055664062
0.035121512 -0.037552845 0.25718009 0.054199219
0.035896115 -0.037181664 0.25463808 0.053466797
0.037863906 -0.038031448 0.26045778 0.052490234
0.039523512 -0.038530797 0.26387757 0.053222656
0.040659893 -0.038506098 0.26370844 0.052490234
0.043496087 -0.040047836 0.27426699 0.05078125
0.041760553 -0.037410703 0.25620663 0.049316406
0.042859465 -0.037384752 0.25602892 0.048828125
0.044773839 -0.038053192 0.26060671 0.046386719
0.047355175 -0.039240893 0.26874065 0.047607422
0.048502844 -0.039211612 0.26854014 0.049316406
0.050966006 -0.040221907 0.27545914 0.05078125
0.05146455 -0.03967081 0.27168494 0.050048828
0.053078964 -0.039985366 0.27383918 0.049072266
0.054710705 -0.040298712 0.27598509 0.044433594
0.058757931 -0.042338945 0.28995761 0.029052734
0.056311842 -0.039713047 0.27197421 0.034179688
0.060957789 -0.042093918 0.28827953 0.026367188
0.060898837 -0.041194979 0.28212321 0.028320312
0.060527213 -0.040124718 0.27479354 0.0390625
0.064063817 -0.041636482 0.2851468 0.036621094
0.063910812 -0.040738251 0.27899528 0.035400391
0.067000292 -0.041901749 0.28696352 0.034667969
0.066801146 -0.041003559 0.28081223 0.032958984
0.068540342 -0.041306168 0.28288469 0.034667969
0.070295602 -0.041607484 0.28494823 0.031982422
0.070890196 -0.041223295 0.2823171 0.022460938
-0.026666783 -0.037265778 0.26318955 0.017089844
-0.026916435 -0.03932441 0.27772865 0.020263672
-0.025035756 -0.038318526 0.27062461 0.020996094
-0.024276858 -0.039014842 0.27554235 0.021484375
-0.022467017 -0.038006619 0.26842174 0.022216797
-0.021196503 -0.037849411 0.26731145 0.023193359
-0.02020596 -0.038203046 0.26980901 0.0234375
-0.018768538 -0.037703171 0.26627865 0.024169922
-0.017282106 -0.037031628 0.26153585 0.025146484
-0.0161344 -0.037041809 0.26160777 0.025390625
-0.014778599 -0.036539052 0.25805709 0.026611328
-0.013836305 -0.037060075 0.26173678 0.029052734
-0.011809131 -0.034505844 0.24369752 0.028808594
-0.011641382 -0.037417259 0.26425937 0.029541016
-0.010144185 -0.036227811 0.25585893 0.031005859
-0.0087632705 -0.035208184 0.24865779 0.031005859
-0.0079295496 -0.036409765 0.25714397 0.031005859
-0.0069571654 -0.03726906 0.26321274 0.032958984
-0.0056918534 -0.036589045 0.25841013 0.033203125
-0.0045538726 -0.036592182 0.25843227 0.035644531
-0.0032879449 -0.035226595 0.24878782 0.035644531
-0.0022452727 -0.036083322 0.25483847 0.036132812
-0.0010854237 -0.034887247 0.24639119 0.036865234
0 -0.035742667 0.25243255 0.040039062
0.0010588202 -0.034032166 0.24035218 0.046386719
0.002160144 -0.034715235 0.24517636 0.056640625
0.0031602578 -0.033858571 0.23912616 0.070556641
0.0040857177 -0.032830369 0.23186448 0.075927734
0.0055056708 -0.035392206 0.24995746 0.072021484
0.0063508064 -0.034020837 0.24027218 0.066894531
0.0075200428 -0.034529451 0.24386424 0.063964844
0.0083804093 -0.03366996 0.2377941 0.062744141
0.0098570855 -0.035202496 0.24861762 0.062255859
0.010950342 -0.035196144 0.24857277 0.062988281
0.011516826 -0.033651743 0.23766541 0.060791016
0.013326211 -0.035693806 0.2520875 0.059814453
0.01408801 -0.034831621 0.24599834 0.059814453
0.014870415 -0.034139916 0.24111316 0.059326172
0.016167132 -0.034642491 0.2446626 0.059326172
0.016900176 -0.033949912 0.23977125 0.057617188
0.01867247 -0.035303704 0.2493324 0.058105469
0.019764308 -0.035292018 0.24924988 0.05859375
0.021157281 -0.035790984 0.25277382 0.057617188
0.021626547 -0.03475558 0.2454613 0.05859375
0.022699086 -0.034742132 0.24536632 0.061523438
0.023653839 -0.034557816 0.2440646 0.062011719
0.02520559 -0.035223819 0.24876821 0.061767578
0.026416855 -0.035378322 0.24985941 0.061035156
0.027901584 -0.035872057 0.25334638 0.060791016
0.02859137 -0.035345081 0.24962465 0.060302734
0.031245686 -0.037195783 0.26269522 0.060302734
0.030759523 -0.035309289 0.24937184 0.059082031
0.032759562 -0.036308434 0.2564283 0.057617188
0.034978416 -0.037475396 0.26466998 0.055419922
0.036287215 -0.03762351 0.26571605 0.0546875
0.03692985 -0.037093259 0.26197115 0.053222656
0.037713248 -0.036732238 0.25942144 0.054931641
0.040442374 -0.038231831 0.27001229 0.0546875
0.039764199 -0.036516707 0.25789922 0.053466797
0.041630268 -0.037168421 0.26250198 0.052734375
0.043923818 -0.03815626 0.26947856 0.051269531
0.044680681 -0.037792321 0.26690829 0.051513672
0.045210123 -0.037259627 0.2631461 0.051513672
0.045706537 -0.036727022 0.2593846 0.050048828
0.047673177 -0.037372977 0.26394662 0.049072266
0.050337318 -0.038521945 0.27206123 0.049804688
0.05149556 -0.038491845 0.27184865 0.051269531
0.051731382 -0.037789293 0.26688689 0.050537109
0.053803749 -0.038429741 0.27141005 0.046630859
0.054713629 -0.038230073 0.26999986 0.043701172
0.056835502 -0.038867734 0.27450338 0.043212891
0.056744613 -0.037997127 0.26835471 0.0390625
0.060935158 -0.039970469 0.28229144 0.038085938
0.060303316 -0.038764894 0.27377707 0.041748047
0.063836999 -0.04023182 0.28413725 0.037353516
0.065028019 -0.04019431 0.28387231 0.037109375
0.065940931 -0.039989561 0.28242627 0.036132812
0.067679621 -0.040283903 0.2845051 0.036376953
0.068296194 -0.039911792 0.28187701 0.036132812
0.070047528 -0.040204268 0.28394264 0.032958984
0.066516988 -0.037508104 0.26490098 0.023193359
-0.02838851 -0.038432077 0.28018224 0.017578125
-0.026699392 -0.037788335 0.27548915 0.021240234
-0.024939444 -0.036978267 0.26958349 0.021240234
-0.023973208 -0.03732289 0.27209592 0.021240234
-0.023791045 -0.038988724 0.28424039 0.022460938
-0.021495864 -0.037184462 0.27108675 0.022705078
-0.020218123 -0.037031475 0.2699714 0.022949219
-0.018694861 -0.036381569 0.26523337 0.024414062
-0.017770654 -0.036888521 0.26892921 0.025634766
-0.016664905 -0.037064139 0.27020952 0.025390625
-0.015340319 -0.036742624 0.26786557 0.026611328
-0.014163654 -0.036751341 0.26792911 0.028320312
-0.012693707 -0.035931461 0.26195195 0.029052734
-0.011010145 -0.034282472 0.24993029 0.029541016
-0.010054557 -0.034785602 0.25359827 0.030761719
-0.0089813955 -0.034956902 0.25484711 0.030029297
-0.0078598419 -0.03496189 0.25488344 0.030517578
-0.0068017077 -0.035297647 0.25733125 0.032958984
-0.0054291608 -0.03380974 0.24648392 0.033691406
-0.0044288719 -0.034475632 0.25133848 0.034912109
-0.0032739632 -0.033980645 0.24772988 0.036132812
-0.0022359837 -0.034811102 0.25378418 0.036132812
-0.0010967283 -0.034149013 0.24895734 0.037109375
0 -0.032491602 0.23687427 0.040039062
0.0010647847 -0.033154383 0.24170615 0.047363281
0.0021827461 -0.033982269 0.24774171 0.057617188
0.0031781399 -0.032986093 0.24047926 0.0703125
0.0041094823 -0.031989411 0.23321311 0.076660156
0.0052428665 -0.032649603 0.23802616 0.072998047
0.0062588486 -0.032480467 0.23679309 0.067138672
0.0073383362 -0.032642145 0.23797177 0.064208984
0.0088111321 -0.034294214 0.25001588 0.0625
0.0097194053 -0.033626087 0.24514502 0.062744141
0.0107442 -0.033454396 0.24389334 0.0625
0.012108743 -0.034275632 0.24988042 0.061035156
0.013461852 -0.03493033 0.25465336 0.059326172
0.013681907 -0.032770447 0.23890714 0.060546875
0.015548952 -0.034582164 0.25211513 0.057617188
0.016256562 -0.033745553 0.24601597 0.054931641
0.017420212 -0.033901006 0.24714927 0.049316406
0.019315526 -0.035378281 0.2579191 0.044433594
0.019776195 -0.034209706 0.2493998 0.044677734
0.021371616 -0.035023768 0.25533459 0.045410156
0.022488141 -0.035010856 0.25524044 0.047363281
0.023158053 -0.034336962 0.25032753 0.053710938
0.023901202 -0.033827987 0.24661693 0.056884766
0.026073566 -0.035298128 0.25733477 0.056396484
0.026432671 -0.034293272 0.250009 0.057373047
0.028182898 -0.035101425 0.25590071 0.056396484
0.028883534 -0.034590438 0.25217545 0.056152344
0.030836059 -0.035561018 0.25925133 0.056396484
0.031073805 -0.034555368 0.25191978 0.055419922
0.032319553 -0.034701355 0.25298408 0.054931641
0.034049019 -0.035339665 0.25763756 0.054199219
0.035327461 -0.035483774 0.25868815 0.052490234
0.03577067 -0.034806166 0.25374821 0.052490234
0.038257293 -0.036097687 0.26316381 0.052490234
0.038496714 -0.035255257 0.2570222 0.053710938
0.04015613 -0.03572423 0.26044118 0.052978516
0.042980235 -0.037174527 0.27101427 0.052001953
0.042588454 -0.035840102 0.2612859 0.052246094
0.04450741 -0.036469333 0.26587319 0.052246094
0.046669547 -0.037260447 0.27164069 0.052734375
0.048250806 -0.037559837 0.27382332 0.051269531
0.049849838 -0.037858114 0.27599788 0.050537109
0.051246557 -0.037992205 0.27697542 0.05078125
0.050400645 -0.036496125 0.26606852 0.051513672
0.052911833 -0.037443738 0.27297696 0.051269531
0.053600013 -0.037087835 0.27038229 0.047851562
0.055225685 -0.037381984 0.27252674 0.046875
0.055642895 -0.036863025 0.26874334 0.046386719
0.059528839 -0.038615819 0.2815218 0.046630859
0.058929563 -0.037446935 0.27300024 0.045410156
0.060338143 -0.037575178 0.27393517 0.043701172
0.064668916 -0.039482486 0.28784007 0.038574219
0.064525492 -0.038637325 0.28167856 0.037353516
0.063779518 -0.037470073 0.27316889 0.037109375
0.068557911 -0.039531466 0.28819713 0.036621094
0.069758922 -0.039492644 0.28791413 0.036865234
0.069797911 -0.038809091 0.28293079 0.033691406
0.068616331 -0.037482772 0.27326152 0.023193359
-0.027063984 -0.035457049 0.26710978 0.017578125
-0.026014956 -0.035631906 0.26842704 0.021484375
-0.025065355 -0.035966091 0.27094457 0.021484375
-0.024942404 -0.037579153 0.28309628 0.021240234
-0.022291882 -0.035353448 0.26632932 0.022460938
-0.021795176 -0.036486026 0.2748614 0.0234375
-0.019868668 -0.035217497 0.26530516 0.022949219
-0.018875826 -0.035548776 0.26780081 0.024169922
-0.018099977 -0.036360126 0.27391297 0.025390625
-0.016451322 -0.035408817 0.26674643 0.025634766
-0.014865303 -0.034456335 0.25957105 0.026367188
-0.014618806 -0.036708724 0.27653906 0.027832031
-0.012291422 -0.033670388 0.25365025 0.029052734
-0.011761675 -0.035441156 0.26699004 0.029052734
-0.010443702 -0.034966376 0.2634134 0.030029297
-0.0089440662 -0.033688657 0.25378788 0.03125
-0.0080508096 -0.034656141 0.26107627 0.030761719
-0.0066778888 -0.033537183 0.25264677 0.032470703
-0.0058051525 -0.034985032 0.26355392 0.033203125
-0.0045806048 -0.034506552 0.25994936 0.034667969
-0.0032918642 -0.033064295 0.24908437 0.035888672
-0.002215988 -0.033386897 0.25151464 0.036621094
-0.0011133528 -0.033548374 0.25273108 0.036621094
0 -0.034190767 0.25757048 0.040283203
0.0010867176 -0.032745782 0.24668489 0.047119141
0.0020881426 -0.031460732 0.23700419 0.057617188
0.003116085 -0.031298727 0.23578374 0.071777344
0.004133197 -0.031136144 0.23455894 0.078369141
0.0053258282 -0.03209636 0.24179259 0.072753906
0.0062944693 -0.031611603 0.23814075 0.067138672
0.0074171815 -0.031928577 0.2405286 0.064941406
0.00860334 -0.03240528 0.24411979 0.063964844
0.0096771922 -0.032400038 0.24408029 0.062255859
0.01085693 -0.032714911 0.24645233 0.0625
0.012232892 -0.033510055 0.25244242 0.062011719
0.013150541 -0.033021823 0.2487644 0.060302734
0.013966471 -0.032372929 0.24387605 0.060546875
0.015409156 -0.033165723 0.24984846 0.055664062
0.015947117 -0.032035355 0.24133301 0.049316406
0.017515408 -0.032986704 0.24849987 0.04296875
0.018875236 -0.033456624 0.25203991 0.038818359
0.020170098 -0.033765581 0.25436735 0.036376953
0.021888407 -0.034713566 0.26150888 0.036376953
0.023456473 -0.035340395 0.26623097 0.038085938
0.024396945 -0.035006996 0.26371938 0.045654297
0.025081685 -0.034353632 0.25879738 0.052490234
0.025844889 -0.033859886 0.25507784 0.0546875
0.026320852 -0.033046644 0.24895139 0.054443359
0.029258365 -0.03526539 0.26566595 0.054199219
0.029175503 -0.033812996 0.25472459 0.052978516
0.031282425 -0.034912046 0.26300409 0.052246094
0.032128159 -0.034575343 0.26046759 0.051025391
0.033870831 -0.035193834 0.26512688 0.05078125
0.03486095 -0.035015199 0.26378116 0.049316406
0.03616605 -0.035154264 0.2648288 0.047607422
0.035284769 -0.033225838 0.25030133 0.045166016
0.038279284 -0.034953326 0.26331505 0.043701172
0.038518816 -0.034137573 0.25716972 0.043457031
0.041100688 -0.035385039 0.26656729 0.045166016
0.040920906 -0.034251645 0.25802904 0.046142578
0.043196533 -0.03517919 0.26501656 0.049072266
0.043933723 -0.034837987 0.26244619 0.048828125
0.046491351 -0.035920817 0.27060348 0.051025391
0.046808936 -0.035262041 0.26564074 0.051269531
0.048373222 -0.035551656 0.26782247 0.049804688
0.051055577 -0.036629628 0.27594322 0.049560547
0.050879464 -0.03565437 0.26859623 0.051269531
0.05179086 -0.035468195 0.26719376 0.052001953
0.054335952 -0.036384247 0.2740947 0.049560547
0.05477633 -0.035881761 0.27030927 0.047607422
0.057636295 -0.036951911 0.27837104 0.047119141
0.058811512 -0.036919832 0.27812943 0.047851562
0.059217874 -0.03641627 0.27433589 0.047363281
0.060892377 -0.036697086 0.27645138 0.044677734
0.064970247 -0.038386896 0.28918129 0.038818359
0.065912142 -0.038194492 0.28773186 0.038574219
0.067941003 -0.038627334 0.29099259 0.037841797
0.067476064 -0.037652574 0.28364938 0.037353516
0.068373173 -0.037459474 0.28219473 0.036865234
0.071864992 -0.038669452 0.29130986 0.034423828
0.07277938 -0.038474429 0.2898407 0.024414062
-0.029152842 -0.036920577 0.2877259 0.017333984
-0.0260296 -0.034463562 0.26857814 0.020751953
-0.02519094 -0.034941413 0.27230206 0.022216797
-0.02431928 -0.035418987 0.27602383 0.021972656
-0.021799829 -0.033420648 0.26045057 0.022216797
-0.021711836 -0.03513496 0.27381039 0.0234375
-0.020331709 -0.034836967 0.2714881 0.023193359
-0.018205903 -0.033144213 0.25829628 0.024414062
-0.017392188 -0.033773679 0.2632018 0.025634766
-0.016088219 -0.033473052 0.26085898 0.026367188
-0.015081261 -0.033791672 0.26334199 0.026611328
-0.01347736 -0.0327144 0.25494671 0.027832031
-0.012532643 -0.033186801 0.25862819 0.028808594
-0.011182589 -0.032573 0.25384477 0.029052734
-0.010401691 -0.033664864 0.26235378 0.030517578
-0.0091196019 -0.033204835 0.25876871 0.030273438
-0.0077943262 -0.032433659 0.25275886 0.031738281
-0.0066497098 -0.032282472 0.25158066 0.032226562
-0.0057285158 -0.033372406 0.26007462 0.033447266
-0.0044766194 -0.032599099 0.25404817 0.034423828
-0.0033417009 -0.032446038 0.25285533 0.035400391
-0.0021959271 -0.03198183 0.24923772 0.035400391
-0.0010553543 -0.030740697 0.23956543 0.037353516
0 -0.033535626 0.26134661 0.040283203
0.0010766746 -0.031361721 0.24440514 0.047119141
0.0021106482 -0.030739814 0.23955858 0.057373047
0.0031018658 -0.030117374 0.23470783 0.071777344
0.0040502748 -0.029494423 0.22985311 0.077636719
0.0053288518 -0.031044098 0.24192989 0.073486328
0.0066177398 -0.032127269 0.25037113 0.067871094
0.0075332718 -0.031347364 0.24429324 0.065185547
0.0085656075 -0.031187719 0.24304913 0.064453125
0.0098744174 -0.031958349 0.24905474 0.062988281
0.01123584 -0.03272811 0.25505358 0.062255859
0.011654187 -0.030860621 0.24050003 0.061035156
0.013349613 -0.032404311 0.25253019 0.059814453
0.013974379 -0.031311549 0.24401414 0.05859375
0.015045465 -0.031303503 0.24395145 0.053466797
0.01659438 -0.032224424 0.25112832 0.047607422
0.017355161 -0.031595416 0.24622637 0.042236328
0.018072631 -0.030966194 0.24132277 0.036865234
0.019416312 -0.031420253 0.24486127 0.033691406
0.021900754 -0.033575375 0.26165637 0.034667969
0.022301521 -0.032480292 0.2531223 0.035644531
0.024076296 -0.033395331 0.26025328 0.0390625
0.024862351 -0.03291811 0.25653425 0.046386719
0.02524953 -0.031977233 0.24920189 0.053955078
0.027098995 -0.032889504 0.2563113 0.054931641
0.027950138 -0.03256562 0.25378725 0.054199219
0.030293446 -0.033938352 0.26448509 0.053222656
0.032014567 -0.034538165 0.2691595 0.053222656
0.031701725 -0.032979209 0.2570104 0.051757812
0.034196466 -0.034347776 0.26767579 0.048583984
0.034563329 -0.033559054 0.26152918 0.045898438
0.035203792 -0.033078291 0.25778258 0.038330078
0.036655795 -0.0333663 0.26002705 0.030029297
0.037081923 -0.032731336 0.2550787 0.022705078
0.038540225 -0.033017997 0.25731269 0.019775391
0.041676734 -0.034684945 0.27030337 0.022705078
0.043218233 -0.034968738 0.272515 0.028564453
0.04458325 -0.035098244 0.27352428 0.038818359
0.043158777 -0.033082694 0.25781688 0.043701172
0.047131773 -0.035201773 0.27433106 0.044433594
0.046834741 -0.034105431 0.26578718 0.045166016
0.047324304 -0.033621397 0.26201504 0.045166016
0.051083636 -0.035428103 0.27609488 0.045654297
0.049781118 -0.033721864 0.26279798 0.046630859
0.052970774 -0.035067033 0.27328104 0.048095703
0.053424269 -0.034581311 0.26949576 0.047363281
0.055046614 -0.034856852 0.27164307 0.045898438
0.055213772 -0.03421881 0.26667076 0.047607422
0.057591528 -0.034948837 0.27235991 0.046630859
0.058994655 -0.035069693 0.27330175 0.046142578
0.061185766 -0.035644766 0.27778336 0.044189453
0.061556138 -0.035157386 0.27398518 0.038818359
0.06486664 -0.036335692 0.28316781 0.038574219
0.06605114 -0.036301106 0.28289828 0.038330078
0.069193184 -0.037323724 0.29086766 0.038574219
0.070120133 -0.037136026 0.28940493 0.037353516
0.069873966 -0.036344841 0.28323913 0.034667969
0.071344256 -0.036458567 0.28412539 0.024658203
-0.02746007 -0.033577573 0.27101895 0.016357422
-0.026043769 -0.033293281 0.26872435 0.020507812
-0.024423987 -0.032709412 0.26401168 0.021972656
-0.023801262 -0.033469211 0.27014434 0.021972656
-0.022821527 -0.033780538 0.27265719 0.022216797
-0.02153229 -0.033642881 0.2715461 0.023681641
-0.019438693 -0.032158338 0.25956371 0.023681641
-0.019322431 -0.033963874 0.27413699 0.024169922
-0.017162232 -0.032177914 0.25972176 0.026123047
-0.01617155 -0.032486212 0.26221013 0.026367188
-0.014881864 -0.032195073 0.25986025 0.02734375
-0.014123831 -0.033101428 0.26717579 0.028076172
-0.013066876 -0.03340831 0.26965278 0.028564453
-0.01140184 -0.032066412 0.25882179 0.029785156
-0.010455358 -0.032671709 0.26370737 0.030029297
-0.0088687744 -0.031178061 0.2516515 0.030029297
-0.0077612903 -0.031182528 0.25168756 0.031005859
-0.0066533601 -0.031186398 0.25171879 0.031738281
-0.0055983667 -0.031489577 0.25416586 0.033203125
-0.0045643942 -0.032092135 0.25902936 0.034667969
-0.0031995561 -0.029994657 0.24209973 0.034667969
-0.0021011422 -0.029546149 0.23847964 0.035400391
-0.0010932651 -0.030746875 0.24817121 0.036621094
0 -0.030747171 0.24817359 0.040283203
0.0011145972 -0.031346817 0.25301358 0.047119141
0.0020584792 -0.028946226 0.23363741 0.057373047
0.0031835584 -0.029844683 0.24088922 0.072265625
0.0041164863 -0.028942905 0.2336106 0.077636719
0.0053317784 -0.029990077 0.24206275 0.073486328
0.0062695122 -0.029387183 0.23719655 0.069091797
0.007686663 -0.030882698 0.24926749 0.065429688
0.0087834978 -0.030878274 0.24923177 0.064453125
0.0095920712 -0.029974045 0.24193338 0.0625
0.010869044 -0.030567983 0.2467273 0.062988281
0.011660575 -0.029812798 0.24063186 0.062011719
0.012973474 -0.030405384 0.24541488 0.060791016
0.013912812 -0.030098651 0.2429391 0.057861328
0.015426316 -0.03098915 0.25012672 0.052246094
0.016443813 -0.030830933 0.24884968 0.046875
0.017364651 -0.0305226 0.24636097 0.037841797
0.019348281 -0.032008763 0.25835645 0.029541016
0.0205753 -0.032147642 0.25947741 0.026855469
0.021710746 -0.032136355 0.25938627 0.029785156
0.021676149 -0.030480888 0.24602431 0.034912109
0.024423987 -0.032709412 0.26401168 0.038330078
0.02522625 -0.032248199 0.26028904 0.041259766
0.026483713 -0.032383703 0.26138273 0.047851562
0.026986428 -0.031623475 0.25524664 0.0546875
0.027832769 -0.031310637 0.25272155 0.054931641
0.030034332 -0.03248778 0.2622228 0.054199219
0.031888913 -0.033216313 0.26810309 0.052490234
0.032311764 -0.032454733 0.26195607 0.05078125
0.032987513 -0.031990945 0.25821263 0.047851562
0.033630196 -0.031527068 0.25446847 0.037109375
0.038007841 -0.034481563 0.27831548 0.021484375
0.041880053 -0.031833246 0.25693977 0.024414062
0.044981092 -0.033290617 0.26870283 0.038330078
0.045516692 -0.032823246 0.26493049 0.043701172
0.047490105 -0.033390168 0.26950637 0.043945312
0.049071286 -0.033660386 0.27168739 0.043701172
0.051110785 -0.034224626 0.27624163 0.042480469
0.051610522 -0.033755552 0.27245554 0.042236328
0.054842267 -0.035054047 0.28293625 0.042724609
0.055807259 -0.034878165 0.28151661 0.041992188
0.056518715 -0.034554921 0.2789076 0.041748047
0.055733927 -0.033350106 0.26918301 0.040771484
0.061379775 -0.035963293 0.29027516 0.037353516
0.058514595 -0.033584863 0.27107784 0.036132812
0.059654832 -0.03355452 0.27083293 0.037109375
0.061588362 -0.033962835 0.27412859 0.036132812
0.064359687 -0.034808557 0.28095478 0.038574219
0.06360738 -0.033752587 0.27243161 0.038574219
0.066706672 -0.034741696 0.28041509 0.037841797
0.069015801 -0.035290785 0.28484705 0.038330078
0.06962011 -0.034964077 0.28221005 0.034912109
0.07226605 -0.035656188 0.28779638 0.024902344
-0.028085044 -0.033115279 0.27718717 0.017089844
-0.026524862 -0.032697279 0.27368835 0.020751953
-0.024213675 -0.031269617 0.2617383 0.021484375
-0.024451669 -0.033155814 0.27752644 0.021240234
-0.023136657 -0.033023886 0.27642217 0.022216797
-0.020969149 -0.031592902 0.26444429 0.023193359
-0.019991713 -0.031892035 0.26694816 0.023681641
-0.019247469 -0.03262382 0.27307346 0.023925781
-0.017171299 -0.031045098 0.25985897 0.025878906
-0.016702039 -0.032353602 0.27081165 0.026855469
-0.014820481 -0.030917197 0.25878841 0.02734375
-0.013939478 -0.031502604 0.26368847 0.028320312
-0.012428897 -0.030642282 0.25648725 0.028076172
-0.01162111 -0.031515837 0.26379922 0.029296875
-0.0099810399 -0.03007561 0.251744 0.029296875
-0.0089587979 -0.030369731 0.25420588 0.030273438
-0.0080640754 -0.031241918 0.26150641 0.031494141
-0.0067208973 -0.030377859 0.25427395 0.032470703
-0.0056280093 -0.030525725 0.25551164 0.032958984
-0.0043960935 -0.029804934 0.24947833 0.034423828
-0.0032652786 -0.029517541 0.24707276 0.034667969
-0.0022196423 -0.03009776 0.2519294 0.035888672
-0.0010938452 -0.029664505 0.24830289 0.036376953
0 -0.029230671 0.24467154 0.040039062
0.0010991811 -0.02980921 0.24951413 0.046875
0.0021876281 -0.029663658 0.2482958 0.057373047
0.0031372285 -0.028359989 0.23738362 0.071533203
0.0041826908 -0.028358091 0.23736772 0.078857422
0.005201241 -0.028210979 0.23613635 0.073730469
0.0064008553 -0.028931297 0.24216568 0.069335938
0.007616071 -0.029506257 0.2469783 0.066162109
0.0085748499 -0.029068172 0.24331136 0.064697266
0.0096451398 -0.02906345 0.24327184 0.062744141
0.011034723 -0.029925585 0.25048822 0.062255859
0.011666748 -0.028763274 0.24075925 0.062011719
0.013300053 -0.030057529 0.25159267 0.061035156
0.013781662 -0.028750105 0.24064903 0.056640625
0.01506166 -0.029176014 0.24421406 0.052001953
0.015733702 -0.028445974 0.23810335 0.043701172
0.018055148 -0.030602876 0.25615743 0.030273438
0.01926803 -0.03073757 0.25728485 0.023681641
0.021639397 -0.032602724 0.27289686 0.024414062
0.022025289 -0.031437587 0.26314425 0.028564453
0.022006501 -0.029840229 0.24977379 0.033447266
0.023878923 -0.03083732 0.25811979 0.040527344
0.025122667 -0.030968789 0.25922024 0.040771484
0.026375517 -0.031099565 0.26031488 0.045654297
0.026109062 -0.02950266 0.2469482 0.053222656
0.02784737 -0.030208236 0.25285411 0.054443359
0.030050067 -0.031343918 0.26236022 0.053710938
0.030617932 -0.030753408 0.25741744 0.052001953
0.031883765 -0.030881098 0.25848621 0.050292969
0.031776655 -0.029716071 0.24873452 0.043212891
0.033806458 -0.030560438 0.25580218 0.025634766
0.043004133 -0.030690769 0.2568931 0.027099609
0.044924758 -0.031239372 0.26148513 0.042236328
0.047094081 -0.031929161 0.26725891 0.043701172
0.049527194 -0.032759786 0.27421153 0.043945312
0.05069619 -0.032734614 0.27400085 0.04296875
0.05231344 -0.032993317 0.27616629 0.04296875
0.051642671 -0.031830039 0.26642922 0.04296875
0.054893401 -0.033081777 0.27690673 0.041259766
0.055585027 -0.032770358 0.27430004 0.037597656
0.056744896 -0.032742374 0.27406579 0.032226562
0.063416228 -0.035829462 0.2999059 0.028076172
0.059822541 -0.033109296 0.2771371 0.025390625
0.064897716 -0.035199832 0.29463562 0.024658203
0.062947504 -0.033472605 0.2801781 0.028076172
0.061686613 -0.032171309 0.26928577 0.035644531
0.065016896 -0.03326837 0.27846858 0.037841797
0.067861892 -0.034081083 0.28527132 0.038330078
0.067623764 -0.033344008 0.2791017 0.038330078
0.069945194 -0.033872794 0.28352782 0.035400391
0.072007038 -0.03425952 0.28676489 0.025146484
-0.026388882 -0.029962907 0.26044679 0.017333984
-0.02700595 -0.032057345 0.27865228 0.021240234
-0.025007449 -0.031098604 0.27031863 0.021972656
-0.024251359 -0.031666268 0.27525294 0.022216797
-0.022642996 -0.031122258 0.27052423 0.022949219
-0.021171413 -0.03071625 0.26699507 0.023193359
-0.020544931 -0.031560693 0.27433524 0.0234375
-0.019001646 -0.031014303 0.26958585 0.024169922
-0.016540792 -0.028797567 0.25031731 0.025634766
-0.016337553 -0.030475423 0.26490173 0.026611328
-0.014897334 -0.029926503 0.26013038 0.027099609
-0.013242867 -0.028819839 0.2505109 0.028564453
-0.012669872 -0.03007948 0.26146007 0.028320312
-0.011413708 -0.029806951 0.2590912 0.028564453
-0.010034152 -0.029115817 0.25308365 0.029785156
-0.0090914266 -0.029677877 0.25796923 0.030761719
-0.00780673 -0.029124727 0.2531611 0.03125
-0.0068844398 -0.029964574 0.2604613 0.033203125
-0.005470769 -0.02857388 0.24837294 0.033447266
-0.0043983436 -0.028715737 0.24960601 0.034179688
-0.0032669501 -0.028438848 0.24719922 0.034423828
-0.0021567172 -0.028161386 0.24478742 0.036132812
-0.001110421 -0.028998695 0.25206557 0.037597656
0 -0.028162464 0.2447968 0.039306641
0.0011157596 -0.029138114 0.25327742 0.046386719
0.0021780708 -0.028440213 0.24721107 0.057617188
0.0031388344 -0.027323598 0.23750512 0.072265625
0.0040567247 -0.026485387 0.23021913 0.078369141
0.0051772161 -0.027040647 0.23504561 0.073242188
0.0063080681 -0.027455913 0.23865524 0.0703125
0.0074705547 -0.027870553 0.24225941 0.06640625
0.0085365511 -0.027866554 0.24222465 0.065185547
0.0096980799 -0.028140645 0.24460714 0.062255859
0.011093698 -0.028971242 0.25182694 0.063232422
0.011907334 -0.028269142 0.24572407 0.062011719
0.012986967 -0.028262936 0.24567012 0.061767578
0.014135145 -0.028395379 0.24682137 0.056884766
0.015143942 -0.02824891 0.2455482 0.052734375
0.016620699 -0.028936688 0.25152659 0.042480469
0.018319974 -0.029901683 0.25991464 0.029541016
0.019730374 -0.030309388 0.26345852 0.02734375
0.020213431 -0.029326372 0.25491384 0.028564453
0.021227809 -0.029177114 0.25361645 0.029785156
0.022762241 -0.029721849 0.25835145 0.032958984
0.023556123 -0.029293774 0.25463048 0.0390625
0.024667773 -0.029281817 0.25452656 0.041748047
0.026755394 -0.030379057 0.2640641 0.042480469
0.027014265 -0.029394945 0.25550991 0.05078125
0.028259477 -0.029519901 0.25659606 0.053710938
0.030203167 -0.03033681 0.26369688 0.052978516
0.031205976 -0.030183166 0.26236135 0.052246094
0.031454731 -0.029337203 0.25500798 0.048828125
0.032253433 -0.029044824 0.25246653 0.038574219
0.036999386 -0.032208018 0.279962 0.015625
0.044331394 -0.029685033 0.25803146 0.036132812
0.046276089 -0.030212553 0.26261681 0.043945312
0.04933631 -0.031424876 0.27315471 0.044677734
0.051162347 -0.031812072 0.27652031 0.04296875
0.052564904 -0.031924065 0.27749377 0.043212891
0.05397477 -0.032035306 0.27846074 0.043212891
0.054213326 -0.031461857 0.27347612 0.040527344
0.05922357 -0.033622306 0.29225543 0.034912109
0.056772768 -0.031545181 0.27420041 0.030761719
0.05893328 -0.032063443 0.2787053 0.026611328
0.060363382 -0.032171275 0.27964261 0.023925781
0.05919268 -0.030916391 0.26873478 0.023193359
0.065901235 -0.033745367 0.2933251 0.024169922
0.064694196 -0.032490227 0.28241503 0.028076172
0.065048471 -0.032051772 0.27860382 0.035400391
0.068455905 -0.033106092 0.28776833 0.037597656
0.067371026 -0.031989042 0.27805859 0.038330078
0.069688596 -0.032498583 0.28248769 0.03515625
0.068793967 -0.031518556 0.27396896 0.025634766
-0.026279535 -0.028691107 0.25936761 0.017578125
-0.027954873 -0.031907462 0.28844345 0.020751953
-0.024796285 -0.029650003 0.26803601 0.021728516
-0.025433822 -0.031932954 0.28867391 0.021240234
-0.022148414 -0.029271599 0.26461524 0.022460938
-0.022523623 -0.031421233 0.28404793 0.022949219
-0.020283353 -0.029960446 0.2708424 0.023925781
-0.019266723 -0.030237461 0.27334666 0.0234375
-0.017588219 -0.029443402 0.26616836 0.026123047
-0.016644131 -0.029853174 0.2698727 0.026611328
-0.014973979 -0.02892353 0.26146871 0.027099609
-0.013889448 -0.029064385 0.26274204 0.029052734
-0.012500048 -0.028534902 0.25795552 0.028564453
-0.011526049 -0.028942624 0.26164132 0.028808594
-0.010183193 -0.028411811 0.25684276 0.029296875
-0.0090104975 -0.028282398 0.25567287 0.031005859
-0.0078105764 -0.028018342 0.25328583 0.031494141
-0.0066956137 -0.028021833 0.25331736 0.032714844
-0.0055001662 -0.027622517 0.24970755 0.033935547
-0.0044859587 -0.028161302 0.25457817 0.034423828
-0.0033006056 -0.027626749 0.24974582 0.034423828
-0.0021470985 -0.026957488 0.24369571 0.035644531
-0.0010842626 -0.02722651 0.24612764 0.037109375
0 -0.027897378 0.25219229 0.039794922
0.001094945 -0.027494749 0.24855253 0.046386719
0.0021257345 -0.026689254 0.24127087 0.057861328
0.003140382 -0.026285645 0.23762223 0.072509766
0.0041868947 -0.026283883 0.2376063 0.079833984
0.0052331677 -0.026281616 0.23758581 0.07421875
0.006375249 -0.026681073 0.24119692 0.069091797
0.0073994934 -0.026543694 0.23995498 0.06640625
0.008626163 -0.027076039 0.2447674 0.064208984
0.0094146496 -0.026267523 0.23745839 0.062744141
0.011099159 -0.027870676 0.25195089 0.063232422
0.011678449 -0.026659369 0.24100071 0.063476562
0.012865341 -0.02692139 0.24336936 0.061035156
0.013934121 -0.026914952 0.24331118 0.059326172
0.015151384 -0.02717576 0.24566887 0.054931641
0.016868699 -0.028238898 0.25527966 0.042480469
0.017902706 -0.028096754 0.25399467 0.034423828
0.018472338 -0.027285405 0.24666005 0.034179688
0.020510873 -0.028613377 0.25866491 0.031005859
0.021946145 -0.029004278 0.26219869 0.032226562
0.023305466 -0.029260738 0.26451707 0.034179688
0.023009166 -0.027513068 0.24871813 0.038574219
0.023861064 -0.027234821 0.24620278 0.04296875
0.026523996 -0.028958 0.26178032 0.04296875
0.026517482 -0.027744602 0.25081119 0.049316406
0.027742295 -0.027865048 0.25190005 0.053466797
0.029527964 -0.028517904 0.25780186 0.052490234
0.03007542 -0.027970832 0.25285631 0.051025391
0.031766895 -0.0284888 0.25753874 0.047119141
0.033191055 -0.028739585 0.25980586 0.031982422
0.044352636 -0.028556978 0.25815508 0.027832031
0.046719123 -0.029328655 0.26513103 0.042236328
0.048497695 -0.029702617 0.26851165 0.043945312
0.050083593 -0.029943572 0.2706899 0.043457031
0.051009979 -0.029788192 0.26928523 0.043457031
0.052846577 -0.030159326 0.27264029 0.043212891
0.054239061 -0.030266143 0.27360591 0.039306641
0.056843035 -0.031029649 0.28050801 0.034912109
0.057291407 -0.030608993 0.27670529 0.029296875
0.057957515 -0.030319773 0.27409074 0.022216797
0.06320671 -0.032391012 0.29281476 0.018310547
0.062612027 -0.031444535 0.2842586 0.020507812
0.060349219 -0.029713849 0.26861319 0.0234375
0.063912079 -0.03086292 0.27900079 0.025390625
0.065354668 -0.030964078 0.27991527 0.031982422
0.067645811 -0.031456076 0.28436294 0.037109375
0.069401637 -0.031685784 0.28643948 0.037841797
0.0682685 -0.030611863 0.27673125 0.034912109
0.069121286 -0.030450499 0.27527249 0.025878906
-0.02739246 -0.028709913 0.27035168 0.017822266
-0.026095673 -0.02859397 0.2692599 0.020996094
-0.025143187 -0.028862217 0.27178589 0.021972656
-0.023635836 -0.028488504 0.26826674 0.021484375
-0.02306948 -0.029269336 0.27561957 0.022460938
-0.021767115 -0.029151242 0.27450752 0.022949219
-0.020383509 -0.028904051 0.27217981 0.023193359
-0.019361109 -0.029170165 0.27468571 0.024414062
-0.017436555 -0.028021932 0.26387319 0.025390625
-0.016054612 -0.027643971 0.26031405 0.026611328
-0.014842345 -0.027522497 0.25917017 0.027099609
-0.014472349 -0.029072769 0.27376857 0.028564453
-0.012740816 -0.027921146 0.2629241 0.027832031
-0.011531503 -0.027798068 0.26176512 0.028808594
-0.0098996758 -0.026515946 0.24969183 0.029785156
-0.0091429371 -0.02755018 0.25943086 0.031005859
-0.007814276 -0.026910352 0.25340581 0.031982422
-0.0066667339 -0.02678493 0.25222477 0.032226562
-0.0058767465 -0.0283332 0.26680431 0.034179688
-0.0044239694 -0.026661268 0.25106028 0.034179688
-0.0032380507 -0.026019026 0.24501249 0.034423828
-0.0021374295 -0.025762647 0.24259827 0.035888672
-0.0011008079 -0.026536291 0.24988341 0.037597656
0 -0.026923003 0.25352493 0.040283203
0.0010847767 -0.026149841 0.24624433 0.046630859
0.0021267424 -0.025633834 0.24138527 0.057373047
0.0031899607 -0.025632603 0.2413737 0.072021484
0.0041675079 -0.025115689 0.23650607 0.080078125
0.005182222 -0.02498473 0.23527288 0.073486328
0.006634682 -0.026656155 0.25101215 0.069580078
0.0073656095 -0.025365259 0.2388562 0.065673828
0.0085875252 -0.02587657 0.24367103 0.064208984
0.0094191087 -0.025228763 0.23757085 0.062744141
0.010997638 -0.026511123 0.2496464 0.062744141
0.011977541 -0.026248449 0.24717291 0.062744141
0.013255646 -0.026628597 0.25075263 0.062744141
0.013940708 -0.02585057 0.24342619 0.061767578
0.015083867 -0.025972474 0.24457413 0.057861328
0.016876664 -0.027122144 0.25540018 0.044189453
0.01808174 -0.02724262 0.2565347 0.038330078
0.018390456 -0.026077878 0.24556668 0.037841797
0.02071232 -0.027738623 0.26120538 0.033447266
0.021045841 -0.026701851 0.25144243 0.03515625
0.02257116 -0.02720524 0.25618267 0.037353516
0.023690471 -0.027194625 0.25608271 0.040527344
0.023989297 -0.026285937 0.2475259 0.043945312
0.026047293 -0.027300049 0.25707546 0.04296875
0.02691257 -0.027031649 0.25454804 0.047363281
0.028020894 -0.027019087 0.25442973 0.052246094
0.030232014 -0.028029952 0.26394874 0.052246094
0.030949187 -0.027632115 0.26020241 0.051757812
0.030890662 -0.026594866 0.25043499 0.045898438
0.033975214 -0.028241834 0.26594394 0.026611328
0.043756779 -0.027046394 0.25468686 0.020507812
0.047161702 -0.028422233 0.26764268 0.040771484
0.048519973 -0.028527608 0.26863497 0.044189453
0.050768763 -0.029139088 0.27439308 0.043212891
0.05306565 -0.02974909 0.28013727 0.043945312
0.051716361 -0.028333742 0.2668094 0.043701172
0.055679396 -0.029827073 0.28087163 0.039306641
0.055905059 -0.029296916 0.27587929 0.034912109
0.059285447 -0.030407371 0.28633609 0.026611328
0.060675226 -0.029849976 0.28108728 0.017578125
0.064206362 -0.030955423 0.2914969 0.01953125
0.06037648 -0.028538181 0.26873454 0.023681641
0.063128091 -0.02926496 0.27557838 0.02734375
0.066487603 -0.030240813 0.28476766 0.028076172
0.065710485 -0.029333884 0.27622741 0.036132812
0.069432743 -0.030431986 0.28656787 0.037353516
0.070914738 -0.030526508 0.28745794 0.03515625
0.068856627 -0.02912055 0.2742185 0.026855469
-0.026793091 -0.026911644 0.26443616 0.017333984
-0.025405003 -0.026677294 0.26213342 0.020507812
-0.025154538 -0.027672112 0.27190861 0.022216797
-0.024498643 -0.028298102 0.2780596 0.021484375
-0.022877457 -0.027816301 0.27332541 0.022216797
-0.021009494 -0.026964249 0.26495305 0.023193359
-0.020211471 -0.027465926 0.26988259 0.023681641
-0.019028557 -0.027474586 0.26996768 0.024169922
-0.017044356 -0.02625032 0.25793794 0.025634766
-0.016958373 -0.027983459 0.27496791 0.026855469
-0.014432751 -0.025647851 0.25201803 0.027099609
-0.01364606 -0.026270678 0.25813797 0.029296875
-0.012511644 -0.026276464 0.25819483 0.028808594
-0.011696976 -0.027022084 0.26552138 0.028564453
-0.010144568 -0.02603972 0.25586855 0.029541016
-0.0088051474 -0.025426811 0.24984606 0.031005859
-0.0078926422 -0.026047714 0.25594711 0.031982422
-0.0069583626 -0.02679175 0.26325807 0.032714844
-0.0054251021 -0.025065893 0.24629965 0.034179688
-0.0042976942 -0.024821086 0.24389416 0.034179688
-0.00320745 -0.024699258 0.24269706 0.034423828
-0.0022346308 -0.025811965 0.25363061 0.035644531
-0.0011066552 -0.025565693 0.25121072 0.037109375
0 -0.025565939 0.25121316 0.040039062
0.0010852707 -0.025071673 0.24635643 0.046630859
0.0021597866 -0.024947448 0.2451358 0.057617188
0.0032234872 -0.024822753 0.24391054 0.072021484
0.004019734 -0.023215741 0.22811991 0.079101562
0.0052647544 -0.02432503 0.23901986 0.073730469
0.0062849727 -0.024199 0.23778147 0.068115234
0.0076682074 -0.025307022 0.248669 0.067382812
0.0085059432 -0.024562791 0.24135613 0.064941406
0.0096157044 -0.0246822 0.24252945 0.063476562
0.011429922 -0.026405143 0.25945926 0.062988281
0.011395583 -0.023932556 0.23516339 0.063476562
0.012621005 -0.024297295 0.23874733 0.064208984
0.013808256 -0.024538087 0.24111339 0.064697266
0.014941297 -0.024655029 0.24226247 0.060546875
0.016644254 -0.025634116 0.25188306 0.045898438
0.01749262 -0.025256906 0.24817656 0.039306641
0.019033223 -0.025864772 0.25414953 0.039306641
0.019954223 -0.025609881 0.25164494 0.034179688
0.020650448 -0.02510852 0.24671851 0.035888672
0.021196652 -0.024484009 0.240582 0.036865234
0.023812963 -0.026196266 0.2574068 0.040527344
0.024585485 -0.025816735 0.25367749 0.04296875
0.02544732 -0.025559919 0.25115398 0.042480469
0.026924687 -0.025916995 0.25466266 0.045898438
0.028166363 -0.026027713 0.25575057 0.052001953
0.030383715 -0.026996829 0.26527318 0.051757812
0.030102996 -0.025756756 0.25308815 0.051513672
0.031647414 -0.026111115 0.2565701 0.044189453
0.03445185 -0.027444782 0.26967481 0.025390625
0.046653442 -0.027635308 0.27154696 0.017333984
0.045708083 -0.026398439 0.25939336 0.037597656
0.04897286 -0.02759414 0.27114242 0.044189453
0.050349459 -0.027694322 0.27212682 0.04296875
0.051959421 -0.027915221 0.27429739 0.043945312
0.054741774 -0.028741634 0.28241777 0.044189453
0.054995697 -0.028233288 0.27742276 0.040527344
0.055688437 -0.027967421 0.27481034 0.03515625
0.059557449 -0.029274095 0.28764978 0.024902344
0.061775941 -0.029731948 0.29214871 0.022949219
0.05993326 -0.028256413 0.27765 0.020996094
0.061623111 -0.028472058 0.27976891 0.020263672
0.061733112 -0.027963609 0.27477285 0.022460938
0.0620712 -0.027576046 0.27096465 0.027099609
0.067344323 -0.029354209 0.28843704 0.028320312
0.06489601 -0.027763199 0.2728036 0.034423828
0.067747496 -0.028456129 0.27961239 0.037109375
0.070363671 -0.029027237 0.28522414 0.035644531
0.073912159 -0.029956171 0.29435194 0.02734375
-0.027539035 -0.026458245 0.27179831 0.017089844
-0.027289977 -0.027410729 0.28158292 0.020996094
-0.025500963 -0.026833504 0.27565327 0.021972656
-0.025148623 -0.02778589 0.28543687 0.021728516
-0.023494998 -0.027325111 0.2807034 0.022949219
-0.021594455 -0.02651001 0.27233011 0.023681641
-0.020310914 -0.026401017 0.27121043 0.024169922
-0.018866086 -0.026055653 0.26766261 0.024414062
-0.017211873 -0.025355779 0.26047298 0.025146484
-0.016442569 -0.025952652 0.26660451 0.02734375
-0.015410884 -0.026195357 0.26909775 0.02734375
-0.014036561 -0.025847562 0.26552495 0.028320312
-0.012987215 -0.026089359 0.26800889 0.028564453
-0.011381464 -0.025150016 0.25835925 0.028564453
-0.010100886 -0.024800312 0.25476682 0.029296875
-0.0089372694 -0.024686243 0.25359502 0.030761719
-0.0078960825 -0.024926065 0.25605866 0.031494141
-0.0067047556 -0.024692882 0.25366324 0.032470703
-0.0057483036 -0.025404451 0.26097301 0.033203125
-0.0043851319 -0.024224946 0.24885625 0.033691406
-0.0032569822 -0.023990219 0.24644499 0.034179688
-0.0022249089 -0.024582293 0.25252718 0.035888672
-0.001107138 -0.02446481 0.25132033 0.037353516
0 -0.024110483 0.24768043 0.039550781
0.0010857441 -0.023992063 0.24646391 0.046386719
0.0021179423 -0.023400452 0.24038646 0.057128906
0.0031446724 -0.02316297 0.23794687 0.071777344
0.0042140051 -0.023279583 0.23914479 0.080078125
0.0052403137 -0.023159405 0.23791026 0.073242188
0.0063197934 -0.023275109 0.23909885 0.068847656
0.0075967051 -0.023981003 0.24635029 0.06640625
0.0085524106 -0.023623198 0.24267468 0.064941406
0.0096198926 -0.023619346 0.24263509 0.063232422
0.011167729 -0.024677718 0.25350747 0.062744141
0.01128301 -0.022665868 0.23284028 0.062744141
0.012946966 -0.023841131 0.24491343 0.063964844
0.014230772 -0.024189407 0.24849118 0.063720703
0.014424617 -0.022767553 0.23388486 0.062744141
0.01657143 -0.024412306 0.25078094 0.047119141
0.017670948 -0.024405068 0.25070658 0.038330078
0.018588113 -0.024161644 0.24820596 0.036376953
0.019866899 -0.024389209 0.25054368 0.032226562
0.021874651 -0.025440618 0.26134452 0.031494141
0.023230506 -0.025666628 0.26366627 0.032714844
0.023264037 -0.024479689 0.25147316 0.036865234
0.024127619 -0.024234377 0.24895315 0.041259766
0.026804661 -0.025752692 0.26455036 0.041015625
0.027446946 -0.025271028 0.25960237 0.047119141
0.02698225 -0.023849444 0.24499883 0.051757812
0.029705966 -0.025247037 0.25935593 0.052490234
0.031119814 -0.025469085 0.26163694 0.051513672
0.032552876 -0.025690433 0.2639108 0.046630859
0.035235982 -0.026849026 0.27581269 0.026611328
0.048256136 -0.026658313 0.27385357 0.037353516
0.046619412 -0.025125982 0.25811237 0.044433594
0.05081255 -0.02673387 0.27462974 0.043701172
0.051755313 -0.02659663 0.27321991 0.044433594
0.053609431 -0.026923319 0.27657589 0.045410156
0.053838123 -0.026437325 0.27158344 0.043945312
0.054747086 -0.026299246 0.27016497 0.038085938
0.0605672 -0.028476052 0.29252669 0.026611328
0.058284584 -0.02683197 0.27563751 0.026123047
0.061495643 -0.027732462 0.284888 0.022705078
0.062432434 -0.027591823 0.28344324 0.022949219
0.064420782 -0.027912322 0.28673565 0.0234375
0.061825763 -0.026272792 0.26989323 0.028076172
0.065439396 -0.027283715 0.28027818 0.029052734
0.066047028 -0.027027112 0.27764216 0.032958984
0.067775428 -0.027230129 0.27972767 0.037841797
0.069519997 -0.027432272 0.28180426 0.036376953
0.070689045 -0.027404217 0.28151605 0.028320312
-0.027305523 -0.025041444 0.26949364 0.017578125
-0.027418427 -0.026287941 0.28290832 0.020751953
-0.02539962 -0.02551201 0.2745578 0.022460938
-0.022920309 -0.024172813 0.26014552 0.022216797
-0.022795537 -0.025306551 0.27234668 0.022705078
-0.02064326 -0.02419037 0.26033446 0.022949219
-0.019865785 -0.024648672 0.26526663 0.0234375
-0.019300928 -0.02544456 0.27383193 0.024414062
-0.017299112 -0.02432592 0.26179323 0.025634766
-0.016449405 -0.024783283 0.26671535 0.026855469
-0.015486742 -0.025127741 0.27042234 0.02734375
-0.014234762 -0.025021059 0.26927423 0.029052734
-0.01240472 -0.023786524 0.2559883 0.028564453
-0.0117604 -0.024806118 0.26696107 0.028320312
-0.010249455 -0.024021214 0.25851402 0.029785156
-0.0092404531 -0.024363521 0.26219788 0.031005859
-0.0079742493 -0.024028599 0.2585935 0.032226562
-0.0066754585 -0.023467485 0.25255483 0.031982422
-0.0054832264 -0.023131454 0.24893849 0.032714844
-0.0044297604 -0.023359146 0.25138891 0.033203125
-0.0033385952 -0.023473574 0.25262037 0.034667969
-0.0022151361 -0.023361845 0.25141793 0.035888672
-0.0010754956 -0.022685345 0.24413751 0.037353516
0 -0.023137018 0.24899839 0.040283203
0.0011075998 -0.023362517 0.25142518 0.046142578
0.0021081248 -0.022233255 0.23927216 0.056884766
0.0032101879 -0.022570744 0.2429042 0.071533203
0.0042157625 -0.022230687 0.23924454 0.081298828
0.0051890048 -0.021890255 0.23558083 0.07421875
0.0062903357 -0.022113591 0.23798436 0.068847656
0.0075998716 -0.022900498 0.24645297 0.06640625
0.0085987551 -0.02267161 0.24398971 0.065185547
0.0096720215 -0.022667907 0.24394986 0.063232422
0.010477447 -0.022099996 0.23783804 0.061767578
0.011640448 -0.022321004 0.24021652 0.062255859
0.012888231 -0.022654204 0.24380237 0.063232422
0.014236691 -0.023099493 0.24859454 0.062255859
0.014804464 -0.022304956 0.2400438 0.059570312
0.016257962 -0.022861863 0.24603717 0.048828125
0.018446904 -0.024318693 0.26171547 0.036621094
0.019049382 -0.023635712 0.25436527 0.030517578
0.019299047 -0.022615181 0.24338244 0.028808594
0.022592911 -0.025081605 0.26992583 0.028320312
0.022600491 -0.023835517 0.25651556 0.030029297
0.023385553 -0.02348903 0.2527867 0.034423828
0.024020417 -0.023030033 0.24784704 0.040283203
