# .PCD v0.7 - Point Cloud Data file format
VERSION 0.7
FIELDS x y z intensity
SIZE 4 4 4 4
TYPE F F F F
COUNT 1 1 1 1
WIDTH 997
HEIGHT 1
VIEWPOINT 0 0 0 1 0 0 0
POINTS 997
DATA ascii
0.020552471 -0.034405686 0.25918949 0.038330078
0.022090143 -0.035033505 0.26391909 0.03515625
0.023244197 -0.035020571 0.26382163 0.034667969
0.023617135 -0.033888053 0.25529 0.038085938
0.024498388 -0.03355471 0.2527788 0.045166016
0.02511343 -0.032901589 0.24785864 0.05078125
0.026956623 -0.033844873 0.25496474 0.051757812
0.02899358 -0.034946244 0.26326171 0.051269531
0.02821216 -0.03269653 0.24631386 0.050292969
0.030996742 -0.034593213 0.26060224 0.049804688
0.032720387 -0.035212677 0.26526883 0.048339844
0.034637142 -0.035990071 0.27112523 0.048583984
0.034702491 -0.03485604 0.26258215 0.046630859
0.036002398 -0.034995195 0.26363048 0.045410156
0.035622422 -0.033543788 0.25269654 0.043701172
0.038105283 -0.034794446 0.26211816 0.042480469
0.038697969 -0.034296349 0.25836587 0.042236328
0.03999484 -0.034432974 0.25939509 0.043457031
0.041489255 -0.034727361 0.2616128 0.043945312
0.043585692 -0.035496123 0.26740414 0.045898438
0.044932216 -0.03562976 0.26841086 0.046386719
0.046696153 -0.036079057 0.27179557 0.049072266
0.047018845 -0.035420168 0.26683196 0.048339844
0.047943238 -0.03523564 0.26544183 0.046630859
0.049515102 -0.035524424 0.26761734 0.046386719
0.051554855 -0.036127657 0.27216166 0.047119141
0.054553039 -0.037359834 0.28144407 0.047363281
0.053865511 -0.036069233 0.2717216 0.045410156
0.056698311 -0.037140772 0.27979383 0.044433594
0.058617342 -0.037580881 0.28310928 0.043945312
0.060563348 -0.038019575 0.28641415 0.044677734
0.059728373 -0.0367302 0.27670082 0.044189453
0.06297417 -0.037951689 0.28590274 0.038085938
0.06364432 -0.037603486 0.28327963 0.035644531
0.065371886 -0.037881423 0.28537339 0.035644531
0.067390874 -0.038314562 0.28863639 0.034912109
0.066916101 -0.037340105 0.28129545 0.033691406
0.068658061 -0.037615556 0.28337055 0.032226562
0.073313884 -0.039449077 0.29718304 0.017822266
-0.027201187 -0.034448907 0.26846388 0.023193359
-0.027080122 -0.03585447 0.2794176 0.024169922
-0.025859727 -0.035869062 0.27953133 0.025634766
-0.024106884 -0.03510965 0.27361315 0.025390625
-0.022304455 -0.034194276 0.26647955 0.025634766
-0.021329248 -0.034515843 0.26898554 0.026611328
-0.020693162 -0.035456292 0.27631459 0.027099609
-0.018631276 -0.033918608 0.26433125 0.028076172
-0.01771131 -0.034393378 0.26803115 0.030029297
-0.016460633 -0.034247894 0.26689741 0.030273438
-0.015081261 -0.033791672 0.26334199 0.029785156
-0.013668981 -0.033179533 0.25857157 0.031982422
-0.01294259 -0.03427235 0.267088 0.032958984
-0.011395591 -0.033193439 0.25867993 0.032714844
-0.010353757 -0.033509724 0.26114476 0.034667969
-0.0091196019 -0.033204835 0.25876871 0.034667969
-0.0081672603 -0.033985507 0.26485258 0.03515625
-0.0066816797 -0.032437678 0.25279021 0.036376953
-0.0057285158 -0.033372406 0.26007462 0.037353516
-0.0044979369 -0.032754336 0.25525793 0.038818359
-0.0032137886 -0.031204082 0.24317667 0.038818359
-0.0021959271 -0.03198183 0.24923772 0.040283203
-0.0010553543 -0.030740697 0.23956543 0.040771484
0 -0.032448824 0.25287706 0.041259766
0.0011033248 -0.032137997 0.25045475 0.043457031
0.0020999885 -0.030584564 0.23834869 0.047851562
0.0031818107 -0.030893594 0.24075699 0.054443359
0.0042421301 -0.030891528 0.24074088 0.066894531
0.0051956302 -0.030267995 0.23588163 0.078857422
0.0063300123 -0.030730432 0.23948544 0.078125
0.0073840986 -0.030726625 0.23945576 0.069335938
0.0087360675 -0.031808369 0.24788591 0.065673828
0.0096347462 -0.031182662 0.24300972 0.061767578
0.010863087 -0.031642344 0.24659209 0.060302734
0.01153706 -0.030550467 0.23808296 0.059570312
0.013030244 -0.031629089 0.24648878 0.058349609
0.0142511 -0.031931579 0.24884611 0.059814453
0.015045465 -0.031303503 0.24395145 0.058349609
0.016195478 -0.031449802 0.24509157 0.053466797
0.017865606 -0.032524694 0.2534683 0.046630859
0.019156989 -0.032824166 0.25580215 0.041992188
0.019607605 -0.03172981 0.2472737 0.036621094
0.021396128 -0.032801751 0.25562745 0.03125
0.02240772 -0.032634962 0.25432765 0.032714844
0.023296047 -0.032313079 0.25181916 0.03515625
0.024745628 -0.032763567 0.25532991 0.038574219
0.025615465 -0.032440674 0.25281352 0.045654297
0.02697177 -0.032735094 0.255108 0.051269531
0.028215067 -0.032874297 0.25619283 0.051025391
0.029054169 -0.032549962 0.25366524 0.050048828
0.031728718 -0.034229785 0.26675627 0.050292969
0.032442417 -0.033749752 0.2630153 0.049072266
0.034503162 -0.034655828 0.27007645 0.046875
0.034563329 -0.033559054 0.26152918 0.043945312
0.03634996 -0.034155257 0.26617548 0.0390625
0.037162557 -0.033827588 0.2636219 0.032226562
0.040041517 -0.035343699 0.27543712 0.023681641
0.040691309 -0.034860864 0.27167431 0.020507812
0.041492321 -0.03453147 0.26910734 0.022460938
0.04340779 -0.035122108 0.27371025 0.028320312
0.04458325 -0.035098244 0.27352428 0.037597656
0.044757254 -0.034307983 0.26736569 0.042724609
0.048566215 -0.036273129 0.28268027 0.043457031
0.046624716 -0.033952493 0.2645953 0.043457031
0.0492603 -0.034996819 0.27273384 0.043212891
0.050423071 -0.034969982 0.27252468 0.043457031
0.051583149 -0.034942564 0.27231103 0.044189453
0.051819231 -0.034304705 0.26734012 0.044433594
0.056013107 -0.036257058 0.28255501 0.044189453
0.056729261 -0.035922345 0.27994657 0.044189453
0.056931533 -0.035283398 0.27496719 0.044677734
0.058092322 -0.035252739 0.27472827 0.044433594
0.060271598 -0.03582878 0.27921739 0.043701172
0.061966859 -0.036099806 0.28132954 0.038574219
0.062352121 -0.035612009 0.27752808 0.034912109
0.0640558 -0.035881493 0.27962822 0.035644531
0.065775931 -0.036149852 0.28171957 0.035400391
0.067512378 -0.036417075 0.28380203 0.034912109
0.068694927 -0.03638123 0.28352273 0.03125
0.069584034 -0.036194034 0.28206384 0.018798828
-0.027093936 -0.033129871 0.26740539 0.022949219
-0.026744498 -0.034189064 0.2759546 0.024414062
-0.024647038 -0.033008128 0.26642275 0.025634766
-0.02433254 -0.034216292 0.27617434 0.025146484
-0.023225449 -0.034378424 0.27748299 0.026123047
-0.021340892 -0.033343833 0.26913238 0.026611328
-0.020523643 -0.033953223 0.27405101 0.02734375
-0.018556343 -0.03261729 0.26326811 0.027832031
-0.017401705 -0.032626908 0.26334578 0.029541016
-0.016842259 -0.033833567 0.27308521 0.030029297
-0.014604991 -0.031596094 0.25502563 0.030761719
-0.014187739 -0.033251204 0.26838472 0.032470703
-0.012832492 -0.032809056 0.26481596 0.032226562
-0.011508399 -0.032366101 0.26124066 0.032958984
-0.010215555 -0.031922355 0.25765902 0.034423828
-0.0086555835 -0.03042859 0.24560219 0.034179688
-0.0079478594 -0.031932108 0.25773773 0.034667969
-0.0068452838 -0.032086007 0.25897992 0.035888672
-0.0056783436 -0.031939428 0.25779682 0.037353516
-0.0045430651 -0.03194217 0.25781894 0.038330078
-0.0031995561 -0.029994657 0.24209973 0.0390625
-0.0022611276 -0.031795856 0.25663799 0.039794922
-0.0010985982 -0.030896861 0.24938181 0.040039062
0 -0.031047143 0.25059479 0.041748047
0.0010719332 -0.030146936 0.24332884 0.043945312
0.0020904765 -0.029396167 0.23726907 0.047851562
0.0032635473 -0.03059455 0.24694173 0.0546875
0.0043297759 -0.03044254 0.24571478 0.06640625
0.0052518016 -0.029540226 0.23843181 0.079589844
0.0062695122 -0.029387183 0.23719655 0.078857422
0.0074627795 -0.029983202 0.24200727 0.0703125
0.0085276682 -0.029978907 0.2419726 0.065185547
0.0098318728 -0.030723395 0.2479817 0.060546875
0.011135442 -0.031317201 0.25277454 0.060302734
0.011543384 -0.029513173 0.23821346 0.060302734
0.0131652 -0.030854724 0.24904171 0.059570312
0.014120466 -0.030547883 0.24656506 0.060058594
0.015500841 -0.031138858 0.25133505 0.058105469
0.016284164 -0.030531604 0.24643366 0.052978516
0.017705133 -0.031121081 0.25119159 0.047607422
0.01862498 -0.030812174 0.24869826 0.038574219
0.020479601 -0.031998117 0.25827053 0.030029297
0.020700943 -0.030641638 0.2473218 0.026367188
0.022951216 -0.032273881 0.26049632 0.029296875
0.024647038 -0.033008128 0.26642275 0.03515625
0.025109464 -0.032098904 0.25908402 0.038085938
0.026605759 -0.032532938 0.26258728 0.040771484
0.026859133 -0.031474307 0.25404263 0.049072266
0.02876053 -0.032354325 0.26114562 0.052001953
0.029069925 -0.031444594 0.25380281 0.050537109
0.031459916 -0.032769457 0.26449633 0.049804688
0.031718884 -0.03185923 0.25714952 0.048828125
0.033140942 -0.032139737 0.2594136 0.045898438
0.034740623 -0.032568052 0.2628707 0.038818359
0.035550438 -0.032252152 0.26032093 0.025634766
0.041880053 -0.031833246 0.25693977 0.023925781
0.043981511 -0.032550827 0.26273167 0.036865234
0.048387118 -0.034893181 0.28163782 0.040527344
0.048120506 -0.033833403 0.2730839 0.041992188
0.048425611 -0.033217486 0.26811254 0.040039062
0.052432615 -0.035109747 0.28338581 0.039306641
0.052962761 -0.034639977 0.27959412 0.039794922
0.055994414 -0.035790473 0.28888026 0.040283203
0.05627821 -0.0351725 0.2838923 0.040039062
0.057480738 -0.035143092 0.28365496 0.039794922
0.057698116 -0.034525439 0.27866963 0.038085938
0.059375536 -0.034788981 0.28079677 0.037109375
0.061836388 -0.035491429 0.28646654 0.037597656
0.061478343 -0.034580208 0.27911168 0.035888672
0.065039434 -0.035865925 0.28948924 0.034667969
0.066252626 -0.035832342 0.28921819 0.036376953
0.066636302 -0.035359856 0.28540456 0.035400391
0.067827798 -0.035325591 0.28512797 0.034179688
0.069300987 -0.035436612 0.28602406 0.032714844
0.071650699 -0.035983864 0.29044119 0.019042969
-0.027352391 -0.032251403 0.2699562 0.023193359
-0.026408013 -0.032553237 0.27248266 0.024169922
-0.025441095 -0.032854713 0.27500612 0.025878906
-0.024239043 -0.032867499 0.27511317 0.025390625
-0.023035623 -0.032879677 0.27521506 0.026611328
-0.021447899 -0.032314204 0.27048185 0.02734375
-0.020444013 -0.032613575 0.27298769 0.027587891
-0.018736474 -0.031757701 0.26582372 0.02734375
-0.017490763 -0.031622678 0.26469353 0.029541016
-0.016552912 -0.032064728 0.26839367 0.031005859
-0.015028245 -0.031350616 0.26241627 0.030517578
-0.013683707 -0.030924574 0.25885013 0.031982422
-0.012487523 -0.03078682 0.25769708 0.032714844
-0.011514493 -0.031226696 0.26137903 0.033447266
-0.010172983 -0.030653987 0.25658524 0.033203125
-0.0088734757 -0.030080495 0.25178489 0.034667969
-0.0080640754 -0.031241918 0.26150641 0.034912109
-0.0067208973 -0.030377859 0.25427395 0.035400391
-0.0054946444 -0.029802369 0.24945687 0.037841797
-0.0045668157 -0.030962406 0.25916681 0.037841797
-0.0032332661 -0.029228153 0.24465047 0.039306641
-0.0022089707 -0.029953057 0.25071818 0.039794922
-0.0010831737 -0.029375097 0.24588044 0.040771484
0 -0.029520085 0.24709404 0.041259766
0.0010991811 -0.02980921 0.24951413 0.043701172
0.0021982996 -0.029808359 0.24950701 0.048339844
0.0032332661 -0.029228153 0.24465047 0.055175781
0.0042253714 -0.02864746 0.23978984 0.066650391
0.0051478948 -0.027921636 0.23371443 0.078857422
0.0062728375 -0.02835267 0.23732236 0.079345703
0.0075040702 -0.029072341 0.24334627 0.070800781
0.0085321888 -0.028923554 0.24210086 0.064941406
0.0093572251 -0.028195884 0.23601 0.061767578
0.011088031 -0.030070154 0.25169832 0.060791016
0.011901256 -0.029341431 0.24559864 0.060058594
0.01298034 -0.029334994 0.24554476 0.059326172
0.013781662 -0.028750105 0.24064903 0.061035156
0.015509035 -0.03004263 0.25146794 0.058349609
0.015813567 -0.028590368 0.23931198 0.053466797
0.017544152 -0.029736757 0.24890767 0.045898438
0.01926803 -0.03073757 0.25728485 0.031982422
0.0210649 -0.031737164 0.26565182 0.024169922
0.022227356 -0.031726003 0.26555842 0.025146484
0.023282239 -0.031570099 0.26425344 0.028808594
0.023767339 -0.03069322 0.25691363 0.034667969
0.02395417 -0.029528379 0.24716349 0.040527344
0.026375517 -0.031099565 0.26031488 0.040527344
0.026109062 -0.02950266 0.2469482 0.045410156
0.028112587 -0.030495934 0.25526229 0.051025391
0.029085156 -0.03033746 0.25393578 0.051269531
0.031047154 -0.03118453 0.26102608 0.050292969
0.033366729 -0.032317426 0.27050883 0.048339844
0.032390699 -0.030290296 0.25354099 0.043701172
0.03412389 -0.030847391 0.2582041 0.031738281
0.043404169 -0.030976262 0.2592828 0.027099609
0.045335032 -0.031524666 0.26387313 0.040039062
0.048145287 -0.032641865 0.2732245 0.041748047
0.049957864 -0.033044651 0.27659598 0.041259766
0.05069619 -0.032734614 0.27400085 0.039794922
0.051862463 -0.032708894 0.27378556 0.040527344
0.05141212 -0.031687938 0.26523978 0.039306641
0.052773055 -0.031803939 0.26621076 0.038330078
0.056547541 -0.033337813 0.27904984 0.034179688
0.059692685 -0.034443274 0.28830296 0.029052734
0.060659003 -0.034271661 0.28686652 0.025390625
0.064115815 -0.034775738 0.29108581 0.027099609
0.065603517 -0.034884952 0.29199997 0.031982422
0.065203831 -0.034005638 0.28463981 0.035400391
0.066394366 -0.03397321 0.28436834 0.036132812
0.06870316 -0.034503575 0.28880772 0.03515625
0.070191756 -0.034610238 0.28970051 0.032714844
0.070525654 -0.034153894 0.28588074 0.019287109
-0.027366251 -0.031072645 0.27009299 0.023193359
-0.026655223 -0.031641014 0.27503344 0.024414062
-0.024337607 -0.030265607 0.26307794 0.026123047
-0.024357725 -0.031805158 0.2764602 0.025634766
-0.022238657 -0.0305665 0.26569343 0.026123047
-0.021075616 -0.030577261 0.26578695 0.026855469
-0.019639866 -0.030170353 0.26224998 0.02734375
-0.018575601 -0.030318916 0.26354134 0.027587891
-0.017259957 -0.030049635 0.26120067 0.029296875
-0.016412154 -0.030614581 0.26611134 0.030273438
-0.014897334 -0.029926503 0.26013038 0.031005859
-0.013626719 -0.029655196 0.25777209 0.031982422
-0.0129045 -0.030636508 0.26630193 0.032226562
-0.011093698 -0.028971242 0.25182694 0.033203125
-0.010082162 -0.029255124 0.25429454 0.033203125
-0.0092621576 -0.03023521 0.26281375 0.034667969
-0.0079934932 -0.029821491 0.25921756 0.034912109
-0.0068524191 -0.029825203 0.25924984 0.036621094
-0.005657576 -0.029549574 0.25685397 0.037841797
-0.0045691528 -0.02983091 0.25929946 0.038330078
-0.0032509358 -0.028299443 0.24598746 0.038574219
-0.0022314549 -0.029137278 0.25327018 0.039794922
-0.001073051 -0.028022779 0.24358261 0.040771484
0 -0.028441301 0.24722053 0.041259766
0.0011050823 -0.028859278 0.25085372 0.043945312
0.0021994247 -0.02871904 0.24963471 0.047851562
0.0032669501 -0.028438848 0.24719922 0.055664062
0.0041848319 -0.027321767 0.23748921 0.067138672
0.0051772161 -0.027040647 0.23504561 0.078613281
0.0062440266 -0.027177172 0.23623234 0.079345703
0.0073584965 -0.027452495 0.23862553 0.071533203
0.0085792337 -0.028005885 0.24343577 0.064941406
0.0097460905 -0.028279956 0.24581808 0.061035156
0.011147033 -0.029110529 0.25303766 0.060546875
0.011731364 -0.027851371 0.24209268 0.059814453
0.013242867 -0.028819839 0.2505109 0.060302734
0.014135145 -0.028395379 0.24682137 0.060546875
0.015442344 -0.028805537 0.25038657 0.058837891
0.015981443 -0.027823739 0.24185249 0.054443359
0.0176383 -0.02878906 0.25024337 0.044921875
0.019277841 -0.029614216 0.25741586 0.031982422
0.02088402 -0.030299287 0.26337072 0.028564453
0.020823469 -0.028621361 0.24878567 0.028808594
0.022124046 -0.028888525 0.25110796 0.029541016
0.024672529 -0.030682106 0.2666983 0.034179688
0.024784682 -0.029420594 0.25573286 0.040771484
0.025655858 -0.029130602 0.25321215 0.041503906
0.02803367 -0.030504188 0.26515177 0.042480469
0.027330764 -0.028549766 0.24816334 0.049560547
0.029375684 -0.029505664 0.25647232 0.050537109
0.03049024 -0.02949089 0.25634387 0.050048828
0.032048211 -0.029890733 0.25981945 0.047363281
0.033021376 -0.02973637 0.25847766 0.041748047
0.035252631 -0.030687466 0.26674491 0.022949219
0.046427578 -0.031906795 0.27734366 0.016113281
0.044126157 -0.029547606 0.25683686 0.035400391
0.045434702 -0.029663233 0.25784194 0.041259766
0.049120866 -0.031287652 0.27196187 0.041259766
0.05270604 -0.032771923 0.28486362 0.040039062
0.0530161 -0.03219809 0.2798757 0.040283203
0.053282786 -0.0316246 0.27489072 0.040039062
0.055627588 -0.032282602 0.28061029 0.036132812
0.058982827 -0.033485632 0.29106742 0.030761719
0.056281231 -0.031272061 0.27182639 0.027099609
0.059184063 -0.032199886 0.27989128 0.023925781
0.061130714 -0.03258023 0.2831974 0.022216797
0.064929411 -0.033912692 0.29477954 0.022216797
0.065635502 -0.033609293 0.29214233 0.026367188
0.061987322 -0.031130802 0.2705985 0.033203125
0.065048471 -0.032051772 0.27860382 0.035400391
0.069017015 -0.033377454 0.2901271 0.034912109
0.066800073 -0.031717945 0.27570212 0.032958984
0.068527125 -0.031956945 0.27777958 0.020019531
-0.026890688 -0.02935834 0.2653994 0.0234375
-0.026317347 -0.030038403 0.27154717 0.024658203
-0.025466455 -0.030451356 0.27528024 0.025390625
-0.024476063 -0.030730458 0.27780333 0.025390625
-0.023159757 -0.030608201 0.27669814 0.026611328
-0.02214024 -0.0308864 0.27921304 0.027099609
-0.020011701 -0.029559189 0.26721507 0.02734375
-0.018669965 -0.0293009 0.26488015 0.027587891
-0.017268432 -0.028908066 0.26132894 0.029052734
-0.017017318 -0.030522527 0.27592364 0.030273438
-0.014835332 -0.028655721 0.25904772 0.03125
-0.014465508 -0.03026982 0.27363917 0.032714844
-0.012558734 -0.028668871 0.2591666 0.032470703
-0.011419326 -0.028674638 0.25921872 0.032714844
-0.010375328 -0.02894788 0.26168883 0.033935547
-0.0087115709 -0.027344121 0.24719083 0.034667969
-0.0079226894 -0.028420521 0.2569215 0.035888672
-0.0066315401 -0.027753679 0.25089327 0.036865234
-0.0056069652 -0.028158873 0.25455621 0.037841797
-0.0044218735 -0.027758997 0.25094134 0.037841797
-0.0032685609 -0.027358528 0.2473211 0.038818359
-0.0022539194 -0.028298657 0.25581986 0.040283203
-0.0011109686 -0.027897112 0.25218987 0.041259766
0 -0.027226768 0.24612999 0.041259766
0.0011269922 -0.028299473 0.25582725 0.043701172
0.0021898269 -0.027493956 0.24854536 0.048339844
0.0032204939 -0.026956197 0.24368402 0.055664062
0.0041868947 -0.026283883 0.2376063 0.066650391
0.0052865674 -0.026549798 0.24001017 0.078613281
0.0061830305 -0.025876619 0.23392464 0.079833984
0.0074742357 -0.026811812 0.24237877 0.071289062
0.0084980512 -0.02667392 0.24113223 0.065673828
0.0094146496 -0.026267523 0.23745839 0.060791016
0.011312604 -0.028406652 0.25679612 0.060058594
0.011913192 -0.027195238 0.24584496 0.060058594
0.013057361 -0.027323201 0.24700174 0.059814453
0.0135875 -0.026245426 0.23725866 0.062744141
0.015524571 -0.027845113 0.2517198 0.061035156
0.015989291 -0.02676673 0.24197124 0.057373047
0.017476453 -0.027427785 0.24794719 0.045410156
0.018925093 -0.027954165 0.25270563 0.035888672
0.020223338 -0.028212255 0.25503877 0.035644531
0.021743877 -0.028736958 0.25978211 0.031982422
0.022134874 -0.027791021 0.25123084 0.032470703
0.023567641 -0.02818086 0.25475496 0.03515625
0.024562858 -0.028035842 0.25344402 0.039794922
0.025668383 -0.028023871 0.25333577 0.042724609
0.0274099 -0.028678317 0.25925198 0.041748047
0.0288042 -0.028931653 0.26154214 0.047851562
0.029389983 -0.028384641 0.25659716 0.049560547
0.030934718 -0.028769998 0.26008078 0.048828125
0.031766895 -0.0284888 0.25753874 0.046875
0.03349838 -0.029005695 0.26221147 0.037841797
0.038764913 -0.032447036 0.29332119 0.015869141
0.043941963 -0.028292563 0.25576475 0.027832031
0.049244478 -0.030913988 0.27946243 0.040039062
0.050437603 -0.030890722 0.27925211 0.040283203
0.050524857 -0.030207392 0.27307481 0.040039062
0.050107148 -0.029260965 0.26451913 0.040527344
0.053077351 -0.030291026 0.27383086 0.040283203
0.054946527 -0.030660918 0.27717471 0.035644531
0.057565615 -0.031424094 0.2840738 0.030761719
0.057537287 -0.03074036 0.27789286 0.025146484
0.056953926 -0.029794756 0.2693446 0.019287109
0.062439017 -0.031997599 0.2892583 0.018798828
0.061046723 -0.030658422 0.27715212 0.022460938
0.064602904 -0.031808216 0.28754625 0.023681641
0.06472452 -0.031255245 0.28254741 0.030029297
0.066181935 -0.031356029 0.2834585 0.034179688
0.067926504 -0.031586602 0.28554288 0.034667969
0.067402415 -0.030773025 0.27818814 0.032714844
0.070883043 -0.031784233 0.28732947 0.020507812
-0.026903307 -0.028197234 0.26552397 0.023681641
-0.027616948 -0.030260885 0.28495666 0.024414062
-0.024807945 -0.028477388 0.26816207 0.025634766
-0.024061708 -0.029001812 0.27310041 0.025146484
-0.023474209 -0.029782834 0.28045502 0.025878906
-0.021575334 -0.0288944 0.27208892 0.026855469
-0.020111728 -0.028518664 0.26855075 0.026855469
-0.01884936 -0.028399147 0.2674253 0.027832031
-0.01791646 -0.028793178 0.27113575 0.029052734
-0.015905265 -0.027386816 0.25789252 0.030517578
-0.014495562 -0.026879448 0.25311479 0.031005859
-0.014088127 -0.028300926 0.26650038 0.032958984
-0.012505962 -0.027406469 0.25807759 0.032470703
-0.011264571 -0.027154595 0.25570577 0.032958984
-0.0098035624 -0.026258508 0.24726763 0.033203125
-0.0089720404 -0.027035221 0.25458166 0.03515625
-0.007851664 -0.027039107 0.25461826 0.035644531
-0.006570579 -0.026398608 0.24858691 0.036621094
-0.0055294838 -0.026658963 0.25103858 0.037597656
-0.0045308289 -0.027305262 0.25712457 0.037841797
-0.0032220208 -0.025890218 0.24379957 0.0390625
-0.0022336137 -0.026921967 0.25351518 0.039550781
-0.0011008079 -0.026536291 0.24988341 0.040771484
0 -0.026407728 0.24867277 0.041748047
0.0010901204 -0.026278658 0.24745736 0.042724609
0.0021374295 -0.025762647 0.24259827 0.048828125
0.0032380507 -0.026019026 0.24501249 0.055419922
0.0042316234 -0.025502084 0.24014463 0.066162109
0.0051555093 -0.024855943 0.23406012 0.079345703
0.0064103212 -0.02575474 0.24252382 0.079589844
0.007515165 -0.02588029 0.24370606 0.072021484
0.0085875252 -0.02587657 0.24367103 0.066894531
0.0095152222 -0.025486199 0.23999505 0.061523438
0.010997638 -0.026511123 0.2496464 0.060302734
0.011860115 -0.025991112 0.24474964 0.059326172
0.013255646 -0.026628597 0.25075263 0.061279297
0.013871351 -0.02572196 0.24221513 0.063232422
0.015083867 -0.025972474 0.24457413 0.063964844
0.015756886 -0.025322571 0.23845421 0.060791016
0.017825866 -0.026857112 0.25290447 0.048095703
0.018662237 -0.026463266 0.24919575 0.0390625
0.019082185 -0.025555493 0.24064755 0.040283203
0.021349387 -0.027086973 0.25506899 0.035400391
0.021825885 -0.026306953 0.2477238 0.036621094
0.023690471 -0.027194625 0.25608271 0.037841797
0.024925463 -0.027311729 0.25718546 0.041748047
0.025558144 -0.026787374 0.25224778 0.044189453
0.027677856 -0.027800322 0.26178637 0.041748047
0.028419295 -0.027403245 0.25804722 0.045898438
0.029265696 -0.02713402 0.25551203 0.049072266
0.031235754 -0.02788797 0.26261172 0.049316406
0.032078762 -0.027617745 0.26006711 0.045898438
0.033975214 -0.028241834 0.26594394 0.034667969
0.044373069 -0.027427329 0.25827402 0.020751953
0.047372244 -0.028549114 0.26883748 0.0390625
0.048519973 -0.028527608 0.26863497 0.040039062
0.051872432 -0.029772544 0.28035814 0.040527344
0.052614029 -0.029495906 0.27775311 0.041015625
0.052870739 -0.02896619 0.27276495 0.040527344
0.055207532 -0.029574299 0.27849132 0.036621094
0.056868941 -0.029802036 0.28063586 0.030029297
0.060269438 -0.030912058 0.29108855 0.021240234
0.063004091 -0.031641431 0.29795682 0.017578125
0.060675226 -0.029849976 0.28108728 0.018798828
0.060030345 -0.028942063 0.27253777 0.021972656
0.061174408 -0.028915336 0.27228609 0.025634766
0.065295577 -0.030269766 0.28504029 0.026855469
0.065659955 -0.029864373 0.28122285 0.032958984
0.068237811 -0.03046211 0.28685156 0.034179688
0.068004087 -0.029805815 0.28067142 0.032958984
-0.02667075 -0.026788762 0.26322871 0.023681641
-0.0258733 -0.027169043 0.26696539 0.024414062
-0.024260156 -0.026688216 0.26224074 0.025634766
-0.02407258 -0.02780596 0.27322379 0.025146484
-0.023079911 -0.028062461 0.2757442 0.025878906
-0.021297295 -0.027333623 0.26858255 0.026611328
-0.020664643 -0.028081754 0.27593377 0.027587891
-0.018943228 -0.027351379 0.26875705 0.027587891
-0.017204398 -0.026496803 0.26035991 0.029052734
-0.016435428 -0.027120532 0.2664887 0.031005859
-0.015196021 -0.027004227 0.2653459 0.030761719
-0.013966391 -0.026887363 0.26419756 0.032714844
-0.012452905 -0.026153103 0.25698265 0.032226562
-0.012017441 -0.027762415 0.27279592 0.032470703
-0.0099522537 -0.025546074 0.25101796 0.033935547
-0.0091470946 -0.026414258 0.25954881 0.034179688
-0.0079674544 -0.026294611 0.25837314 0.036132812
-0.0070224949 -0.027038677 0.2656844 0.036621094
-0.0055320002 -0.025559802 0.25115281 0.037353516
-0.0042335493 -0.024450621 0.24025394 0.038818359
-0.0033517855 -0.025810724 0.25361842 0.038085938
-0.0022346308 -0.025811965 0.25363061 0.039794922
-0.0011066552 -0.025565693 0.25121072 0.041015625
0 -0.024701392 0.24271804 0.041259766
0.0010959629 -0.025318682 0.24878357 0.042724609
0.0021704787 -0.02507095 0.24634935 0.048583984
0.0031914127 -0.024575761 0.24148355 0.055664062
0.0041907863 -0.024203645 0.23782712 0.067626953
0.0052914787 -0.024448507 0.24023315 0.078125
0.0061246422 -0.023581678 0.23171562 0.078857422
0.0075559895 -0.024936674 0.24502994 0.072021484
0.0085059432 -0.024562791 0.24135613 0.06640625
0.0095676258 -0.024558788 0.2413168 0.061767578
0.011056045 -0.025541423 0.25097224 0.060791016
0.011395583 -0.023932556 0.23516339 0.059814453
0.012941334 -0.024913978 0.2448069 0.061035156
0.013461316 -0.023921553 0.23505528 0.064941406
0.015240123 -0.025148131 0.24710771 0.064941406
0.01576403 -0.024278468 0.23856233 0.064941406
0.016980641 -0.02451768 0.24091285 0.049560547
0.019486398 -0.026480602 0.26020071 0.040039062
0.01861115 -0.02388614 0.2347073 0.041015625
0.021055359 -0.025600843 0.25155613 0.035400391
0.023007421 -0.026575606 0.26113424 0.036376953
0.024036562 -0.026442243 0.2598238 0.037597656
0.024819635 -0.026062611 0.2560935 0.040527344
0.025569664 -0.025682803 0.25236148 0.043457031
0.026924687 -0.025916995 0.25466266 0.040283203
0.028166363 -0.026027713 0.25575057 0.045898438
0.02996939 -0.02662869 0.26165584 0.049316406
0.031249778 -0.026737969 0.26272961 0.050292969
0.032093152 -0.026478877 0.26018375 0.045898438
0.033529032 -0.026709653 0.26245138 0.032470703
0.049119703 -0.029096207 0.28590184 0.018066406
0.045497444 -0.026276786 0.25819799 0.037597656
0.049620077 -0.02795882 0.27472579 0.041259766
0.051232781 -0.028180189 0.27690101 0.041015625
0.051055778 -0.027429737 0.26952699 0.041748047
0.052662972 -0.027650177 0.27169305 0.041503906
0.053815529 -0.027627422 0.27146944 0.038085938
0.057375968 -0.028814919 0.28313792 0.030029297
0.059557449 -0.029274095 0.28764978 0.022216797
0.058511361 -0.028160749 0.27670997 0.021240234
0.061726134 -0.029101692 0.28595576 0.020019531
0.063973144 -0.029557856 0.29043809 0.020996094
0.060668744 -0.027481478 0.27003539 0.026123047
0.066137001 -0.029382339 0.28871343 0.025634766
0.06568832 -0.028632386 0.28134432 0.031738281
0.06630069 -0.028364135 0.27870849 0.034667969
0.069176778 -0.029056471 0.2855114 0.032470703
0.071526699 -0.029507024 0.28993857 0.020996094
-0.027294245 -0.026223062 0.26938233 0.023193359
-0.027055727 -0.027175441 0.27916589 0.024414062
-0.026283888 -0.027657341 0.28411633 0.025634766
-0.025361745 -0.028021364 0.28785583 0.025634766
-0.021874651 -0.025440618 0.26134452 0.026123047
-0.021978358 -0.0269813 0.27717152 0.026855469
-0.020038893 -0.026047433 0.26757815 0.02734375
-0.018780718 -0.025937753 0.26645145 0.028076172
-0.016731542 -0.024648177 0.25320399 0.028808594
-0.016293092 -0.02571672 0.26418084 0.03125
-0.015063793 -0.025605373 0.263037 0.031005859
-0.013908374 -0.025611512 0.26310006 0.033447266
-0.012046964 -0.024200536 0.2486055 0.032470703
-0.011648635 -0.025740394 0.26442406 0.032226562
-0.010293284 -0.025272701 0.25961953 0.032958984
-0.0090655554 -0.025040591 0.25723517 0.034667969
-0.0080831936 -0.02551673 0.26212642 0.035644531
-0.0069293161 -0.025519913 0.26215911 0.035644531
-0.0056680944 -0.02504997 0.25733152 0.037109375
-0.0045990413 -0.025406651 0.2609956 0.038818359
-0.0032890707 -0.024226576 0.248873 0.038574219
-0.0022356058 -0.024700478 0.25374126 0.039550781
-0.0010803955 -0.023873875 0.24524979 0.040527344
0 -0.024465049 0.25132278 0.041748047
0.001107138 -0.02446481 0.25132033 0.043457031
0.002192819 -0.02422774 0.24888496 0.049072266
0.003305115 -0.024344755 0.25008702 0.055175781
0.0043209596 -0.023870435 0.24521445 0.067382812
0.0052135773 -0.023041246 0.23669644 0.079101562
0.0061273123 -0.022566222 0.23181663 0.080566406
0.007409594 -0.023390336 0.24028255 0.070800781
0.0082958387 -0.022914503 0.23539443 0.065917969
0.0095717926 -0.023501249 0.24142191 0.062744141
0.011167729 -0.024677718 0.25350747 0.060546875
0.011576839 -0.023256125 0.23890384 0.059082031
0.013011061 -0.023959158 0.24612588 0.060058594
0.014161354 -0.02407141 0.24727903 0.063476562
0.014947791 -0.02359332 0.24236774 0.064208984
0.015930988 -0.023468837 0.24108894 0.062988281
0.017244114 -0.023815574 0.24465089 0.051025391
0.018950809 -0.024633091 0.25304902 0.038818359
0.019578975 -0.024035744 0.24691264 0.036621094
0.020861939 -0.024262814 0.24924526 0.033447266
0.022271449 -0.024606995 0.25278094 0.032226562
0.022928499 -0.024126617 0.24784616 0.034179688
0.024010494 -0.024116734 0.24774463 0.038818359
0.025580706 -0.02457677 0.25247046 0.041259766
0.026936306 -0.024800869 0.25477254 0.041259766
0.027513918 -0.024319382 0.24982637 0.046875
0.028876962 -0.02454247 0.25211808 0.050048828
0.03140663 -0.025703821 0.26404834 0.050048828
0.030620515 -0.024165431 0.24824488 0.046630859
0.032466341 -0.024738621 0.25413311 0.034423828
0.046673212 -0.026444979 0.27166203 0.017333984
0.049099039 -0.027123962 0.27863705 0.036376953
0.048346061 -0.026056577 0.26767209 0.040771484
0.051696241 -0.027198805 0.27940589 0.041259766
0.050851289 -0.026132058 0.26844749 0.042236328
0.053378355 -0.026807271 0.27538377 0.043457031
0.05454652 -0.026785186 0.27515689 0.040771484
0.056194149 -0.026994379 0.2773059 0.030761719
0.056627873 -0.026623953 0.27350059 0.025634766
0.060545623 -0.027872866 0.28633034 0.024414062
0.060726948 -0.027385805 0.28132689 0.022216797
0.06217121 -0.027476374 0.28225729 0.023193359
0.060161557 -0.026066879 0.26777792 0.026123047
0.065622091 -0.027886037 0.28646564 0.028076172
0.066819973 -0.027859325 0.28619123 0.031494141
0.067171238 -0.027487149 0.28236797 0.034423828
0.069777235 -0.028034395 0.28798971 0.032958984
0.072428778 -0.028580066 0.29359519 0.021484375
-0.027183075 -0.024929149 0.26828513 0.023193359
-0.027301256 -0.026175601 0.28169933 0.024902344
-0.025287727 -0.02539962 0.2733483 0.025634766
-0.024519399 -0.025859287 0.27829519 0.026123047
-0.022390286 -0.024856659 0.26750496 0.026611328
-0.020739274 -0.024302881 0.2615453 0.027099609
-0.020319343 -0.025211427 0.27132297 0.027587891
-0.019557135 -0.025782321 0.27746689 0.027832031
-0.017619466 -0.024776401 0.26664126 0.029296875
-0.016150324 -0.024332678 0.26186597 0.031005859
-0.015208953 -0.02467702 0.26557171 0.03125
-0.014298883 -0.025133766 0.27048722 0.032958984
-0.01228714 -0.02356106 0.25356188 0.032470703
-0.011974225 -0.025257139 0.27181491 0.032226562
-0.010105096 -0.023682887 0.25487298 0.032958984
-0.0090265544 -0.023799552 0.25612849 0.035644531
-0.0077121849 -0.023238929 0.25009513 0.035644531
-0.0064828969 -0.022790538 0.2452696 0.036621094
-0.005643711 -0.023808472 0.25622448 0.037353516
-0.0044725602 -0.023584841 0.25381783 0.037597656
-0.0032743916 -0.02302216 0.24776228 0.038085938
-0.0021937338 -0.023136128 0.24898878 0.039550781
-0.0011129506 -0.023475381 0.2526398 0.041015625
0 -0.023137018 0.24899839 0.041503906
0.0011075998 -0.023362517 0.25142518 0.043212891
0.0021402282 -0.022571832 0.2429159 0.047607422
0.0033385952 -0.023473574 0.25262037 0.0546875
0.0042585619 -0.022456378 0.24167341 0.067382812
0.0051622572 -0.021777418 0.23436648 0.078857422
0.0060656811 -0.021323821 0.22948492 0.079345703
0.0075998716 -0.022900498 0.24645297 0.070556641
0.0084704161 -0.022333229 0.24034807 0.065673828
0.0097682606 -0.022893459 0.24637723 0.061767578
0.010530903 -0.022212751 0.23905152 0.060058594
0.0119344 -0.022884667 0.24628261 0.058837891
0.013080593 -0.022992326 0.24744122 0.058837891
0.013750561 -0.02231073 0.24010594 0.062744141
0.015028775 -0.022642909 0.24368083 0.062255859
0.016097786 -0.022636622 0.24361315 0.061035156
0.017592883 -0.02319283 0.24959904 0.051757812
0.019230807 -0.023860816 0.25678781 0.038330078
0.02064326 -0.02419037 0.26033446 0.03125
0.022288971 -0.024744183 0.26629454 0.028808594
0.0228137 -0.02406038 0.25893551 0.028564453
0.023945015 -0.024050968 0.25883421 0.031494141
0.024489108 -0.023479402 0.25268307 0.036132812
0.025223937 -0.023132455 0.24894929 0.038818359
0.027075136 -0.023795569 0.25608563 0.040527344
0.02845607 -0.024008865 0.2583811 0.048583984
0.029579975 -0.023997232 0.25825593 0.049560547
0.03098915 -0.024209322 0.26053843 0.049560547
0.032120142 -0.024196699 0.26040259 0.046875
0.033557199 -0.024407564 0.26267189 0.035400391
0.048131976 -0.026031895 0.28015277 0.015625
0.046167556 -0.024345219 0.26200092 0.036132812
0.04879744 -0.025104403 0.2701712 0.041259766
0.051275082 -0.025750982 0.27712962 0.041015625
0.052906644 -0.025952457 0.27929786 0.042480469
0.054093331 -0.025931507 0.2790724 0.044433594
0.05409598 -0.025356492 0.27288416 0.042724609
0.05573412 -0.025556421 0.27503577 0.031738281
0.058374677 -0.026197711 0.28193727 0.026855469
0.061575122 -0.027058316 0.291199 0.025390625
0.060751166 -0.026151419 0.2814391 0.024902344
0.06167331 -0.026017403 0.27999681 0.024658203
0.060451772 -0.025002047 0.26906964 0.025390625
0.064834297 -0.026298936 0.28302664 0.028808594
0.067122646 -0.026713446 0.28748757 0.031005859
0.066073127 -0.0258088 0.27775183 0.03515625
0.068374328 -0.026222076 0.2821995 0.033935547
0.073330253 -0.02762052 0.29724941 0.021972656
-0.027561277 -0.024072373 0.27201781 0.023681641
-0.026491493 -0.024189737 0.27334404 0.024169922
-0.025185773 -0.024092585 0.27224621 0.024902344
-0.024315787 -0.024423379 0.2759842 0.026123047
-0.023108613 -0.024432486 0.27608711 0.026123047
-0.022092225 -0.024655534 0.27860752 0.026855469
-0.020236639 -0.023913154 0.27021864 0.027099609
-0.018795963 -0.023598913 0.26666772 0.028076172
-0.016665008 -0.022318328 0.25219709 0.029296875
-0.01630633 -0.023397829 0.26439548 0.031005859
-0.014937091 -0.02308182 0.26082459 0.030273438
-0.014368706 -0.024053808 0.27180803 0.031982422
-0.012468463 -0.022770241 0.25730371 0.032958984
-0.011444206 -0.02298969 0.25978351 0.031494141
-0.010446084 -0.023316234 0.26347345 0.033203125
-0.009201332 -0.023105115 0.26108781 0.034667969
-0.007790158 -0.022356078 0.25262368 0.035644531
-0.0065496885 -0.021928895 0.24779654 0.036621094
-0.0056459578 -0.02268376 0.2563265 0.036621094
-0.0044101155 -0.022148147 0.25027406 0.037353516
-0.0033399244 -0.022364685 0.25272095 0.038330078
-0.0022374287 -0.022473289 0.25394815 0.040039062
-0.001065218 -0.021398628 0.2418045 0.040527344
0 -0.022151558 0.2503126 0.041503906
0.001102688 -0.022151345 0.25031018 0.043701172
0.0021410801 -0.02150554 0.24301259 0.047607422
0.0032275233 -0.021612028 0.24421592 0.054931641
0.0042174407 -0.021180509 0.23933977 0.066650391
0.0052981027 -0.021286184 0.24053386 0.079345703
0.0061001997 -0.020423971 0.23079088 0.080566406
0.0075654415 -0.021711191 0.24533647 0.071289062
0.008644972 -0.02170806 0.24530108 0.065429688
0.0095795877 -0.02138217 0.24161851 0.062744141
0.010802476 -0.021700548 0.24521619 0.060302734
0.01158626 -0.021159139 0.23909827 0.059082031
0.013214079 -0.022120913 0.24996631 0.060302734
0.013964443 -0.021578819 0.24384065 0.060302734
0.015184334 -0.021787887 0.24620312 0.061279297
0.016344527 -0.02188913 0.24734716 0.058837891
0.016489185 -0.020702682 0.23394032 0.052490234
0.019329166 -0.022840815 0.25810122 0.040771484
0.020267215 -0.022618771 0.25559211 0.029541016
0.022399139 -0.023682369 0.26761076 0.024902344
0.022502769 -0.022602338 0.25540644 0.025390625
0.023506721 -0.022486413 0.25409648 0.029785156
0.023912676 -0.021834984 0.24673533 0.035400391
0.026581321 -0.023216467 0.26234609 0.036865234
0.02721356 -0.022778312 0.25739491 0.039794922
0.028467266 -0.022874583 0.25848278 0.049316406
0.028347097 -0.021901943 0.24749196 0.05078125
0.031431895 -0.023385907 0.26426074 0.049560547
0.032727797 -0.023480432 0.26532891 0.046386719
0.033262361 -0.02304106 0.26036397 0.037353516
0.039166525 -0.026226552 0.29636005 0.015625
0.046092886 -0.023741966 0.26828423 0.019287109
0.047239855 -0.023724442 0.26808619 0.038330078
0.047952257 -0.023494845 0.26549175 0.041748047
0.051515929 -0.024639942 0.27843133 0.041503906
0.052474622 -0.024514792 0.27701718 0.041992188
0.054576617 -0.024917319 0.28156573 0.043457031
0.054353032 -0.024263792 0.27418086 0.042236328
0.055514075 -0.024243355 0.27394989 0.031738281
0.057904176 -0.024749102 0.27966484 0.026611328
0.059084371 -0.024727419 0.27941984 0.024902344
0.06154358 -0.02523098 0.28511006 0.022216797
0.060651027 -0.024367759 0.27535567 0.023193359
0.061806735 -0.02434518 0.27510056 0.024902344
0.065672964 -0.025370594 0.28668773 0.026855469
0.067148 -0.025450986 0.28759614 0.031005859
0.064972959 -0.024170537 0.27312708 0.034912109
0.069258623 -0.025296392 0.28584924 0.033447266
0.070446774 -0.025270887 0.28556103 0.022949219
-0.027571613 -0.02287733 0.27211985 0.0234375
-0.026149651 -0.022683715 0.26981685 0.024658203
-0.025755135 -0.023405371 0.27840075 0.025146484
-0.02421825 -0.02310914 0.27487713 0.026123047
-0.02230618 -0.022404879 0.26650015 0.026367188
-0.021620099 -0.022922197 0.27265349 0.026611328
-0.020425832 -0.022929883 0.27274492 0.026611328
-0.018717581 -0.02232548 0.26555571 0.028320312
-0.017713254 -0.022536065 0.26806059 0.029296875
-0.016536972 -0.022542337 0.26813516 0.030029297
-0.015012234 -0.022038041 0.2621367 0.03125
-0.013796606 -0.021941282 0.26098579 0.032714844
-0.01270852 -0.022048205 0.26225761 0.033203125
-0.011502034 -0.021950563 0.26109621 0.032470703
-0.010257409 -0.021750346 0.25871465 0.033691406
-0.0093760667 -0.022366691 0.2660459 0.034912109
-0.007793108 -0.021246316 0.25271934 0.036376953
-0.0066485242 -0.021146817 0.25153583 0.036376953
-0.005648097 -0.021557735 0.25642359 0.036865234
-0.0043689539 -0.020844355 0.24793814 0.036621094
-0.0033090634 -0.021050133 0.25038579 0.038330078
-0.0022168576 -0.021153335 0.25161335 0.040283203
-0.001060267 -0.020234212 0.24068063 0.040527344
0 -0.020949764 0.24919194 0.041259766
0.0011084609 -0.021153949 0.25162065 0.04296875
0.0021418915 -0.020438006 0.24310471 0.047119141
0.0032929999 -0.020947946 0.24917032 0.055419922
0.0043047047 -0.020537822 0.24429199 0.066650391
0.005193037 -0.019820856 0.23576389 0.079345703
0.0063915765 -0.020329548 0.24181464 0.079589844
0.0073435055 -0.020020567 0.23813938 0.071289062
0.008519805 -0.020324072 0.2417495 0.065673828
0.0093905861 -0.019912289 0.23685145 0.062988281
0.010967055 -0.020929607 0.24895218 0.059570312
0.011649476 -0.020210857 0.24040283 0.059082031
0.013090733 -0.020818705 0.24763301 0.058349609
0.013761215 -0.020201538 0.240292 0.059570312
0.015115241 -0.020604307 0.24508281 0.059814453
0.016270546 -0.02070055 0.24622759 0.057617188
0.017350089 -0.020694396 0.2461544 0.051757812
0.018882547 -0.021197403 0.25213754 0.045898438
0.019313956 -0.020477163 0.24357046 0.035644531
0.022407573 -0.022506721 0.26771152 0.029052734
0.022404546 -0.021378497 0.25429162 0.02734375
0.022955664 -0.020861309 0.24813978 0.031982422
0.024038916 -0.020852743 0.2480379 0.035888672
0.026468748 -0.021962237 0.26123506 0.036621094
0.027479384 -0.02185077 0.25990918 0.04296875
0.027679481 -0.021129485 0.25132969 0.049804688
0.030017665 -0.022033045 0.26207727 0.049804688
0.031443644 -0.022224914 0.26435953 0.049804688
0.032293562 -0.022010449 0.26180851 0.046630859
0.032812614 -0.021593044 0.25684357 0.039794922
0.035517849 -0.022594169 0.26875171 0.020996094
0.045698158 -0.022361714 0.26598671 0.024658203
0.047890127 -0.022848465 0.2717765 0.039550781
0.04667338 -0.021724829 0.25841114 0.041748047
0.050871272 -0.023115022 0.27494714 0.041503906
0.052041292 -0.023096737 0.27472961 0.041503906
0.053902529 -0.023379082 0.27808803 0.042480469
0.055082068 -0.023359777 0.27785844 0.040771484
0.057707381 -0.023941124 0.28477338 0.032714844
0.061622579 -0.02502148 0.29762393 0.023193359
0.055584613 -0.022099597 0.26286891 0.021972656
0.06233545 -0.024277838 0.28877851 0.020263672
0.06224208 -0.023756646 0.28257906 0.021484375
0.062628545 -0.023435442 0.27875844 0.024658203
0.067448571 -0.024286663 0.28888348 0.031494141
0.068654075 -0.024262948 0.2886014 0.035644531
0.067565665 -0.023444144 0.27886194 0.033935547
0.070180744 -0.023916684 0.28448266 0.023925781
-0.02733627 -0.021488266 0.26979709 0.024169922
-0.025924364 -0.021304697 0.26749229 0.024169922
-0.025764326 -0.022181423 0.27850008 0.025634766
-0.023906717 -0.021611251 0.27134126 0.026123047
-0.021705581 -0.020654172 0.25932458 0.026855469
-0.020858843 -0.020951141 0.26305321 0.026855469
-0.019615814 -0.020861588 0.26192883 0.02734375
-0.018467786 -0.020868191 0.26201174 0.028564453
-0.017639419 -0.021260966 0.26694322 0.029296875
-0.016243478 -0.020976882 0.26337641 0.030029297
-0.014530937 -0.020208785 0.2537325 0.030761719
-0.01386575 -0.020890655 0.26229376 0.032226562
-0.012595369 -0.020701801 0.25992262 0.032714844
-0.011666717 -0.021093015 0.26483449 0.032226562
-0.010068399 -0.020225899 0.25394741 0.033447266
-0.0090796379 -0.020519583 0.25763473 0.03515625
-0.0079833111 -0.020619348 0.25888738 0.035644531
-0.0066830446 -0.020137846 0.25284186 0.036132812
-0.0056769056 -0.020527294 0.25773156 0.037353516
-0.0044347974 -0.020044893 0.25167477 0.037353516
-0.0034548771 -0.020820985 0.26141903 0.038818359
-0.0021533759 -0.019466138 0.24440816 0.040527344
-0.0010874327 -0.019660398 0.24684723 0.039794922
0 -0.020047989 0.25171363 0.041503906
0.0010713623 -0.019369852 0.24319924 0.042724609
0.0021748026 -0.01965983 0.24684009 0.046630859
0.0033263233 -0.020046249 0.25169179 0.054199219
0.0043276772 -0.019560719 0.24559568 0.065673828
0.0050877929 -0.018397102 0.23098581 0.077636719
0.0063617444 -0.019169681 0.240686 0.079345703
0.0076459884 -0.019748108 0.24794848 0.071533203
0.008394382 -0.018970933 0.23819061 0.06640625
0.0094903093 -0.019064603 0.2393667 0.062255859
0.010649893 -0.01925463 0.24175256 0.059326172
0.01165366 -0.019154003 0.24048916 0.058837891
0.013031238 -0.019633347 0.24650757 0.05859375
0.013905203 -0.01933855 0.24280624 0.058349609
0.015120657 -0.019526867 0.24517067 0.059326172
0.016757449 -0.020197917 0.25359607 0.057861328
0.016843306 -0.019032566 0.23896442 0.052490234
0.018616861 -0.019799193 0.24858986 0.047363281
0.019801483 -0.019889103 0.24971871 0.041748047
0.021198442 -0.020171598 0.25326559 0.037597656
0.022412546 -0.020260544 0.2543824 0.034179688
0.024532117 -0.021120571 0.2651805 0.034912109
0.024751315 -0.020340683 0.25538856 0.036865234
0.026478181 -0.020813746 0.26132813 0.041503906
0.026849877 -0.020226512 0.2539551 0.049560547
0.028088685 -0.020313339 0.25504526 0.051025391
0.028782913 -0.020014804 0.25129697 0.050292969
0.031167544 -0.020870304 0.26203823 0.049072266
0.031709522 -0.020474892 0.25707364 0.048095703
0.032516029 -0.020271664 0.254522 0.043212891
0.03537108 -0.021316553 0.26764116 0.029785156
0.045508217 -0.021096731 0.26488116 0.032470703
0.048539985 -0.021939646 0.27546445 0.041748047
0.047554269 -0.020969866 0.26328829 0.041503906
0.05155275 -0.022191796 0.27863035 0.041748047
0.054096483 -0.022745237 0.28557909 0.041503906
0.052532699 -0.02158574 0.27102095 0.042480469
0.055574112 -0.022328008 0.28034055 0.039794922
0.056036573 -0.02202438 0.27652833 0.033203125
0.057945222 -0.022289982 0.27986309 0.024414062
0.06214539 -0.02340764 0.2938959 0.018310547
0.062356886 -0.02300797 0.28887782 0.018066406
0.060170569 -0.021757253 0.27317438 0.020019531
0.062383421 -0.022115102 0.27766737 0.023925781
0.065990649 -0.022943992 0.28807455 0.025390625
0.06553594 -0.022355974 0.28069165 0.033691406
0.066425756 -0.022239892 0.27923417 0.034423828
0.070452563 -0.023159226 0.29077694 0.033447266
0.071369782 -0.023041792 0.2893025 0.023925781
-0.027468113 -0.020392353 0.27109835 0.0234375
-0.026285151 -0.020401126 0.27121493 0.025146484
-0.024540404 -0.019953944 0.26527008 0.025390625
-0.024555372 -0.020964425 0.27870351 0.026123047
-0.023133395 -0.020789886 0.27638319 0.025878906
-0.022019779 -0.020888479 0.2776939 0.026611328
-0.02134851 -0.021442974 0.28506541 0.02734375
-0.018730629 -0.019989355 0.26574081 0.028076172
-0.017324576 -0.019721398 0.2621786 0.029785156
-0.016024353 -0.019544242 0.25982344 0.030517578
-0.015092267 -0.019823369 0.26353419 0.030029297
-0.013485169 -0.019188521 0.25509444 0.031738281
-0.012481895 -0.019375555 0.25758091 0.032958984
-0.0112424 -0.019196648 0.2552025 0.032226562
-0.010360966 -0.019657312 0.26132661 0.033447266
-0.0089970389 -0.019203305 0.25529099 0.034667969
-0.0077235769 -0.018840255 0.25046456 0.035888672
-0.0069424477 -0.019757304 0.26265594 0.035888672
-0.0056788395 -0.019393489 0.25781932 0.037353516
-0.0045648962 -0.019486656 0.25905791 0.037841797
-0.0032310081 -0.018390059 0.2444796 0.038085938
-0.0022398448 -0.019122925 0.25422239 0.040527344
-0.0010770857 -0.018391479 0.24449846 0.040039062
0 -0.018391656 0.24450083 0.040771484
0.0010985202 -0.018757477 0.24936411 0.041992188
0.0022184106 -0.018939929 0.25178963 0.046142578
0.0032310081 -0.018390059 0.2444796 0.053710938
0.0042219935 -0.018022873 0.23959817 0.065917969
0.0052770348 -0.018021308 0.23957738 0.078125
0.0061067827 -0.017379111 0.23103994 0.079589844
0.0073486455 -0.01792568 0.23830608 0.070556641
0.0085257655 -0.018197417 0.24191862 0.065429688
0.009734489 -0.018468728 0.24552545 0.062255859
0.010653513 -0.01819111 0.24183476 0.058837891
0.012069757 -0.018735796 0.24907587 0.057861328
0.012971449 -0.01845753 0.24537656 0.058349609
0.014188122 -0.018635793 0.24774642 0.057861328
0.015425313 -0.018813616 0.25011042 0.058349609
0.016442306 -0.018717069 0.24882691 0.055908203
0.017362183 -0.018528946 0.24632598 0.053955078
0.019531617 -0.01961804 0.26080453 0.048583984
0.019519718 -0.018516863 0.24616534 0.042724609
0.021510001 -0.019330949 0.2569879 0.039794922
0.021993073 -0.018776832 0.24962139 0.036376953
0.024988633 -0.0203184 0.2701152 0.037597656
0.025346393 -0.019672513 0.26152867 0.041503906
0.025260853 -0.018753681 0.24931364 0.050292969
0.026858924 -0.019109255 0.25404066 0.052246094
0.027432308 -0.01873651 0.24908537 0.05078125
0.029207872 -0.019181956 0.25500718 0.050048828
0.031178012 -0.019717462 0.26212627 0.049804688
0.032911532 -0.020070419 0.26681849 0.047607422
0.033760175 -0.019878019 0.26426071 0.044677734
0.034586012 -0.019685458 0.26170081 0.0390625
0.037364222 -0.02058072 0.27360252 0.022460938
0.045191463 -0.020306692 0.26995954 0.023193359
0.045729265 -0.020021468 0.26616776 0.039794922
0.04771157 -0.020367142 0.27076316 0.041992188
0.048218641 -0.020081561 0.26696661 0.042236328
0.051791057 -0.021055803 0.27991831 0.041992188
0.0520765 -0.020679483 0.27491546 0.040283203
0.053707436 -0.020842416 0.27708155 0.042724609
0.054646075 -0.020735418 0.27565908 0.040039062
0.05581329 -0.020717919 0.27542648 0.034912109
0.056484219 -0.020520864 0.27280676 0.028320312
0.059397146 -0.021129571 0.28089902 0.022216797
0.061760299 -0.021091415 0.28039175 0.020996094
0.0632037 -0.021161122 0.28131846 0.022949219
0.067641944 -0.022211561 0.29528311 0.026611328
0.063344218 -0.020407861 0.27130449 0.034912109
0.069544286 -0.021990446 0.29234359 0.034912109
0.069042817 -0.021434933 0.28495851 0.033447266
0.067604519 -0.020613609 0.27403975 0.023925781
-0.027108857 -0.018941781 0.26755264 0.0234375
-0.027232572 -0.019893141 0.28099063 0.023925781
-0.025332868 -0.019386638 0.27383626 0.024658203
-0.023281645 -0.01870773 0.26424667 0.025634766
-0.022227326 -0.01880057 0.26555806 0.026855469
-0.021353504 -0.019064879 0.26929143 0.027587891
-0.019083487 -0.018040404 0.2548207 0.027587891
-0.019164398 -0.019249197 0.27189493 0.028564453
-0.01724989 -0.018481297 0.26104832 0.029052734
-0.015654963 -0.017970551 0.25383404 0.030761719
-0.014818816 -0.018319244 0.25875932 0.031005859
-0.014324554 -0.019183915 0.27097282 0.031738281
-0.012191419 -0.017811438 0.25158656 0.032714844
-0.011353112 -0.018245354 0.25771564 0.031738281
-0.010267877 -0.018334776 0.25897869 0.033447266
